ply
format ascii 1.0
comment Created by Open3D
element vertex 897
property double x
property double y
property double z
property double nx
property double ny
property double nz
end_header
-1.19783 3.96856 100.476 -0.00787405 0.606299 -0.787402
-1.10515 3.96862 100.478 0.031496 0.606299 -0.787402
-1.01261 3.96895 100.486 0.0629923 0.598425 -0.787401
-0.919988 3.96926 100.494 0.0787403 0.582676 -0.803149
-0.827444 3.9697 100.504 0.110236 0.574803 -0.803149
-0.734853 3.97038 100.522 0.133858 0.566929 -0.803149
-0.642265 3.97102 100.538 0.102362 0.582677 -0.795276
-0.549582 3.97142 100.549 0.0708661 0.606299 -0.779527
-0.456933 3.97178 100.557 0.0787403 0.629921 -0.763779
-0.364242 3.97231 100.571 0.0944879 0.637795 -0.755905
-0.271504 3.97279 100.583 0.0787402 0.637795 -0.755905
-0.178764 3.97316 100.593 0.086614 0.637795 -0.755906
-0.0860323 3.97371 100.606 0.149606 0.637795 -0.748031
0.00675818 3.9747 100.632 0.244094 0.629921 -0.732283
0.192573 3.97897 100.74 0.503937 0.614173 -0.590551
0.285801 3.98309 100.845 0.637795 0.590551 -0.480314
0.379416 3.98969 101.012 0.763779 0.519685 -0.370078
0.473746 4.00005 101.273 0.866142 0.417322 -0.267716
0.569525 4.01668 101.695 0.944882 0.259843 -0.188976
0.667066 4.03939 102.27 0.984252 0.0472441 -0.165354
0.765675 4.06228 102.849 0.976378 -0.0708661 -0.19685
0.86374 4.07737 103.231 0.913385 -0.125984 -0.362204
0.96047 4.08402 103.399 0.740158 -0.102362 -0.661416
1.05651 4.08673 103.467 0.503937 -0.0708665 -0.850393
1.15246 4.08854 103.514 0.370079 -0.0708666 -0.921259
1.24828 4.08975 103.544 0.299212 -0.094489 -0.944881
1.34412 4.09088 103.572 0.314961 -0.118111 -0.937007
1.44014 4.09233 103.609 0.338583 -0.141733 -0.92126
1.53622 4.09365 103.643 0.338583 -0.157481 -0.921259
1.63239 4.09507 103.679 0.393701 -0.173228 -0.897637
1.72876 4.09691 103.726 0.488188 -0.181102 -0.850393
1.82551 4.09937 103.788 0.582677 -0.204725 -0.779527
1.92271 4.10254 103.868 0.653543 -0.244095 -0.708661
2.0204 4.10638 103.966 0.685039 -0.283465 -0.661417
2.11837 4.11042 104.068 0.677165 -0.299213 -0.66929
2.2163 4.11414 104.162 0.637795 -0.275591 -0.708661
2.31413 4.11732 104.242 0.590551 -0.228347 -0.763779
2.41187 4.12005 104.311 0.543307 -0.188976 -0.811023
2.50955 4.12245 104.373 0.488189 -0.165354 -0.850393
2.60708 4.12448 104.424 0.425197 -0.141733 -0.889764
2.70443 4.12613 104.465 0.377953 -0.118111 -0.913386
2.80185 4.12765 104.504 0.354331 -0.0787405 -0.929133
2.89923 4.12907 104.541 0.330708 -0.00787442 -0.937007
2.99647 4.13031 104.571 0.314961 0.0629917 -0.944882
3.09389 4.13162 104.604 0.370079 0.149606 -0.913386
3.19179 4.13342 104.65 0.448819 0.23622 -0.858267
3.29003 4.13567 104.706 0.503937 0.322834 -0.795275
3.38873 4.13829 104.773 0.511811 0.409449 -0.748031
3.48754 4.14085 104.838 0.535433 0.417323 -0.724409
3.58736 4.14451 104.93 0.598425 0.362204 -0.708661
3.6875 4.14822 105.025 0.606299 0.338583 -0.708661
4.11981 4.19397 106.183 -0.149606 0.622046 -0.755905
4.21705 4.19332 106.166 -0.299213 0.362204 -0.874016
4.31292 4.19134 106.116 -0.496063 0.0944877 -0.858267
4.40793 4.18857 106.047 -0.622047 -0.0866144 -0.771654
4.5019 4.18504 105.957 -0.700788 -0.133859 -0.692914
4.59524 4.18102 105.856 -0.740158 -0.094489 -0.653544
4.68805 4.17681 105.748 -0.755906 -0.0708663 -0.64567
4.78061 4.17242 105.638 -0.755906 -0.0551185 -0.645669
4.87308 4.16823 105.531 -0.732283 -3.96936e-07 -0.677165
4.96604 4.16452 105.438 -0.661417 0.0629917 -0.740157
5.05966 4.16161 105.363 -0.582677 0.0551177 -0.803149
5.1537 4.15906 105.299 -0.559055 -4.09736e-07 -0.818897
5.24758 4.15648 105.234 -0.582677 -0.00787447 -0.803149
5.34106 4.15375 105.164 -0.598425 -3.96108e-07 -0.795275
5.43443 4.15098 105.095 -0.598425 -3.96108e-07 -0.795275
5.52762 4.14818 105.024 -0.511811 -0.0157484 -0.850393
5.62206 4.14644 104.979 -0.425197 -0.0236225 -0.897638
-5.49131 4.08443 101.051 0.377952 0.527559 -0.755905
-5.40083 4.08647 101.101 0.433071 0.503937 -0.740157
-5.31051 4.08871 101.157 0.346456 0.496063 -0.787401
-5.21842 4.08965 101.18 0.110236 0.488189 -0.858267
-5.12493 4.08952 101.177 -0.133858 0.480315 -0.858267
-5.03007 4.08823 101.144 -0.267717 0.527558 -0.80315
-4.93539 4.08706 101.115 -0.165355 0.614173 -0.76378
-4.84178 4.08678 101.11 -0.0314961 0.637795 -0.763779
-4.74846 4.08672 101.108 -0.0551182 0.614173 -0.779527
-4.65459 4.08617 101.094 -0.133858 0.582677 -0.795276
-4.56046 4.08534 101.073 -0.181102 0.559055 -0.80315
-4.4662 4.08438 101.05 -0.212598 0.551181 -0.803149
-4.37175 4.08323 101.022 -0.251968 0.543307 -0.795275
-4.27722 4.08188 100.987 -0.299213 0.543307 -0.779528
-4.18233 4.08018 100.945 -0.338583 0.527559 -0.771654
-4.08736 4.07833 100.9 -0.338583 0.527559 -0.771654
-3.99269 4.07667 100.859 -0.299212 0.535432 -0.779528
-3.89841 4.07532 100.826 -0.251968 0.543307 -0.795275
-3.80439 4.07419 100.797 -0.220472 0.543307 -0.803149
-3.71047 4.07314 100.771 -0.212598 0.535432 -0.811023
-3.61663 4.07215 100.747 -0.196851 0.527559 -0.818897
-3.52295 4.07123 100.725 -0.196851 0.511811 -0.826771
-3.42926 4.07029 100.701 -0.220472 0.488189 -0.834646
-3.33552 4.06918 100.673 -0.236221 0.472441 -0.842519
-3.24173 4.06805 100.646 -0.204724 0.480315 -0.850393
-3.14834 4.06728 100.627 -0.133858 0.488189 -0.858268
-3.0552 4.06684 100.616 -0.0944882 0.488189 -0.858268
-2.96212 4.06642 100.605 -0.110236 0.480315 -0.866141
-2.86893 4.06586 100.592 -0.110236 0.480315 -0.866141
-2.77588 4.06541 100.58 -0.0787403 0.488189 -0.866142
-2.68298 4.06516 100.573 -0.0393703 0.488188 -0.866142
-2.59011 4.06502 100.571 -0.0157481 0.480315 -0.874016
-2.49736 4.06495 100.568 -0.0157481 0.472441 -0.874015
-2.40452 4.06485 100.567 -0.0314962 0.47244 -0.874016
-2.31165 4.06462 100.561 -0.0551182 0.464566 -0.874015
-2.21877 4.06437 100.554 -0.0472442 0.472441 -0.874015
-2.12599 4.06421 100.55 -0.0236222 0.488189 -0.866142
-2.0332 4.06409 100.547 -0.0078741 0.503936 -0.858267
-1.94042 4.06404 100.547 0.015748 0.511811 -0.850393
-1.84785 4.0643 100.552 0.070866 0.527559 -0.84252
-1.75531 4.06476 100.564 0.0787396 0.543307 -0.826771
-1.66264 4.06501 100.571 0.0157479 0.559055 -0.826772
-1.56986 4.06491 100.568 -0.0314961 0.566928 -0.818897
-1.47705 4.06467 100.562 -0.0393701 0.574803 -0.811023
-1.38422 4.0645 100.558 -0.0157481 0.598425 -0.795275
-1.29152 4.06444 100.556 -9.05413e-08 0.622047 -0.771654
-1.19874 4.06442 100.556 0.00787398 0.637795 -0.763779
-1.10606 4.06453 100.558 0.023622 0.645669 -0.755905
-1.01339 4.06472 100.563 0.031496 0.629921 -0.771653
-0.920633 4.06487 100.567 0.0472441 0.614173 -0.779527
-0.828026 4.06521 100.575 0.0944878 0.598425 -0.787402
-0.735387 4.06588 100.591 0.141733 0.590551 -0.787401
-0.642684 4.06658 100.61 0.125984 0.606299 -0.779527
-0.54998 4.06716 100.624 0.110236 0.622047 -0.771653
-0.457266 4.06777 100.639 0.110236 0.629921 -0.755906
-0.364503 4.06834 100.653 0.086614 0.637795 -0.755906
-0.271754 4.06872 100.662 0.0708658 0.637795 -0.76378
-0.178933 4.06909 100.671 0.094488 0.629921 -0.763779
-0.0860878 4.0697 100.686 0.149606 0.629921 -0.748031
0.00672911 4.07068 100.71 0.259842 0.629921 -0.724409
0.0996584 4.07248 100.755 0.417323 0.606299 -0.669291
0.286056 4.08071 100.958 0.700787 0.519684 -0.47244
0.379875 4.08795 101.138 0.818898 0.433071 -0.370078
0.474373 4.0989 101.408 0.897638 0.322835 -0.267716
0.570182 4.11497 101.807 0.944882 0.212598 -0.204724
0.667351 4.13544 102.313 0.976378 0.0787402 -0.188976
0.765535 4.15634 102.83 0.968503 -0.03937 -0.212598
0.863503 4.17137 103.202 0.92126 -0.11811 -0.354331
0.960339 4.17869 103.383 0.763779 -0.133859 -0.622046
1.05642 4.18171 103.457 0.527559 -0.125985 -0.834645
1.15237 4.18363 103.505 0.370079 -0.118111 -0.913385
1.2482 4.18483 103.535 0.283464 -0.110237 -0.944881
1.34399 4.18587 103.56 0.299213 -0.118111 -0.944881
1.43994 4.18723 103.594 0.330708 -0.125985 -0.929133
1.536 4.18859 103.628 0.338583 -0.11811 -0.929133
1.63214 4.19006 103.664 0.385827 -0.110237 -0.905511
1.72852 4.19188 103.71 0.472441 -0.110237 -0.866142
1.82513 4.19429 103.768 0.559055 -0.11811 -0.811023
1.9222 4.19723 103.841 0.629921 -0.149606 -0.748031
2.01971 4.20077 103.93 0.677165 -0.188977 -0.700787
2.11751 4.20474 104.027 0.692913 -0.204724 -0.685039
2.21553 4.20872 104.126 0.669291 -0.204725 -0.700787
2.31357 4.21231 104.215 0.629921 -0.173228 -0.748031
2.41137 4.2154 104.29 0.574803 -0.141732 -0.795275
2.50914 4.21802 104.356 0.511811 -0.118111 -0.842519
2.60675 4.22018 104.41 0.448818 -0.0866145 -0.881889
2.70415 4.22201 104.454 0.417323 -0.0472445 -0.905512
2.80168 4.22377 104.498 0.409448 -3.53292e-07 -0.905512
2.89923 4.22555 104.542 0.3937 0.0787398 -0.905512
2.99683 4.2272 104.583 0.401575 0.181102 -0.889763
3.09465 4.22905 104.629 0.448818 0.291338 -0.834645
3.19298 4.23149 104.689 0.503937 0.385826 -0.763779
3.29186 4.23448 104.764 0.551181 0.472441 -0.66929
3.39149 4.23833 104.858 0.519685 0.590551 -0.606299
3.49054 4.24115 104.928 0.448819 0.645669 -0.606299
4.12181 4.29392 106.234 -0.464567 0.27559 -0.834645
4.21782 4.29195 106.185 -0.503937 0.15748 -0.84252
4.31291 4.2891 106.115 -0.622048 -0.00787444 -0.779528
4.40723 4.28567 106.03 -0.669291 -0.086615 -0.72441
4.50108 4.282 105.938 -0.700788 -0.0944882 -0.700787
4.5947 4.27819 105.844 -0.724409 -0.0629925 -0.677166
4.68771 4.27397 105.74 -0.748031 -0.0393705 -0.653543
4.78024 4.26955 105.63 -0.740157 -0.0157484 -0.661418
4.87312 4.26559 105.532 -0.700787 0.0157477 -0.708662
4.96655 4.2622 105.449 -0.645669 0.0551177 -0.755906
5.06015 4.25912 105.373 -0.614173 0.0472437 -0.779528
5.15376 4.25617 105.3 -0.590552 0.0157476 -0.803149
5.24748 4.25344 105.232 -0.582677 -3.86763e-07 -0.803149
5.34113 4.25073 105.166 -0.590552 -4.06873e-07 -0.80315
5.43445 4.24787 105.095 -0.6063 -4.426e-07 -0.787402
5.52752 4.24495 105.022 -0.519685 -0.00787448 -0.850394
5.62202 4.24317 104.978 -0.417323 -0.00787444 -0.905512
-5.40393 4.18209 101.159 0.433071 0.472441 -0.763779
-5.31352 4.18437 101.214 0.338583 0.503937 -0.787401
-5.22134 4.18528 101.236 0.110236 0.55118 -0.818897
-5.12795 4.18527 101.236 -0.0629921 0.59055 -0.795275
-5.03377 4.18456 101.219 -0.133858 0.629921 -0.755906
-4.93969 4.18397 101.205 -0.0944882 0.661417 -0.732283
-4.84601 4.18364 101.196 -0.0708662 0.661417 -0.740157
-4.7521 4.18315 101.185 -0.102362 0.637795 -0.755905
-4.65803 4.18245 101.168 -0.15748 0.614172 -0.76378
-4.5637 4.18152 101.146 -0.19685 0.590551 -0.771653
-4.46926 4.18041 101.118 -0.212598 0.574802 -0.779528
-4.37479 4.17926 101.091 -0.228346 0.574803 -0.779527
-4.28028 4.178 101.061 -0.275591 0.574803 -0.763779
-4.18533 4.17626 101.019 -0.338582 0.566929 -0.748031
-4.09026 4.1743 100.971 -0.338582 0.566929 -0.748031
-3.99549 4.17259 100.93 -0.291339 0.566929 -0.763779
-3.90114 4.17123 100.897 -0.244094 0.574803 -0.771653
-3.80699 4.17 100.867 -0.228346 0.574803 -0.779527
-3.71289 4.1688 100.838 -0.220473 0.559055 -0.787401
-3.61898 4.16772 100.812 -0.212598 0.551181 -0.803149
-3.52513 4.16669 100.787 -0.220473 0.527559 -0.811023
-3.4312 4.1655 100.758 -0.244094 0.503937 -0.818898
-3.33728 4.16422 100.726 -0.244094 0.496063 -0.826772
-3.24353 4.16313 100.701 -0.188976 0.503937 -0.834646
-3.15012 4.1624 100.683 -0.133858 0.503937 -0.84252
-3.0569 4.16189 100.67 -0.110236 0.496062 -0.850394
-2.96367 4.16135 100.658 -0.125984 0.480314 -0.866142
-2.87047 4.16077 100.643 -0.11811 0.464567 -0.866141
-2.77735 4.16033 100.632 -0.0787403 0.464567 -0.874016
-2.68436 4.16007 100.627 -0.0472442 0.456693 -0.881889
-2.59142 4.15989 100.623 -0.0236222 0.456692 -0.88189
-2.49863 4.15983 100.62 -0.0157482 0.456692 -0.88189
-2.40578 4.15972 100.618 -0.0472442 0.456693 -0.881889
-2.31276 4.15938 100.61 -0.0708662 0.448819 -0.88189
-2.21986 4.15909 100.603 -0.0314962 0.448818 -0.889763
-2.12705 4.15905 100.602 -1.14579e-07 0.464566 -0.881889
-2.03428 4.15906 100.602 0.00787391 0.488188 -0.866142
-1.94152 4.1591 100.603 0.03937 0.503936 -0.858268
-1.84892 4.15944 100.611 0.0944881 0.519685 -0.84252
-1.75639 4.16005 100.626 0.094488 0.527559 -0.834645
-1.66372 4.16039 100.634 0.0236219 0.535433 -0.834645
-1.57087 4.16031 100.633 -0.015748 0.55118 -0.826771
-1.47801 4.16015 100.629 -1.77344e-08 0.574803 -0.811023
-1.38527 4.16025 100.63 0.023622 0.598425 -0.795275
-1.29252 4.16046 100.636 0.031496 0.629921 -0.771653
-1.19973 4.16061 100.64 0.023622 0.645669 -0.755905
-1.10694 4.1607 100.643 0.0157479 0.645669 -0.755906
-1.01417 4.16078 100.644 0.007874 0.645669 -0.755905
-0.921363 4.1608 100.645 0.023622 0.637795 -0.763779
-0.828572 4.16101 100.65 0.0787403 0.622047 -0.771654
-0.735905 4.16169 100.666 0.141732 0.614172 -0.763779
-0.643216 4.16254 100.686 0.149607 0.629921 -0.755905
-0.550464 4.16326 100.704 0.125984 0.637795 -0.748031
-0.457616 4.1639 100.72 0.110236 0.645669 -0.748032
-0.364834 4.1645 100.733 0.0866139 0.645669 -0.748031
-0.271966 4.16485 100.742 0.0708657 0.653543 -0.748031
-0.179043 4.16525 100.752 0.102363 0.653543 -0.740157
-0.0861642 4.16595 100.769 0.165354 0.661417 -0.724409
0.00676006 4.16705 100.795 0.267717 0.661417 -0.692913
0.0997534 4.16912 100.845 0.433071 0.629921 -0.629921
0.192952 4.1727 100.933 0.590551 0.574803 -0.551181
0.286411 4.17794 101.059 0.72441 0.488189 -0.472441
0.380266 4.18539 101.239 0.834646 0.393701 -0.370079
0.47487 4.19677 101.514 0.913385 0.283465 -0.27559
0.570682 4.21282 101.902 0.952756 0.181102 -0.220472
0.667633 4.23164 102.358 0.968504 0.0708662 -0.204724
0.765378 4.25043 102.812 0.968504 -0.0472441 -0.228346
0.863163 4.26498 103.164 0.92126 -0.133859 -0.346456
0.960103 4.27293 103.357 0.787402 -0.165355 -0.582677
1.05626 4.27635 103.439 0.559055 -0.157481 -0.803149
1.15222 4.27842 103.49 0.393701 -0.125984 -0.905511
1.24799 4.27976 103.521 0.291338 -0.110237 -0.944882
1.34381 4.28084 103.547 0.299213 -0.0866146 -0.944882
1.43982 4.28227 103.583 0.346457 -0.0708666 -0.929134
1.53584 4.28376 103.618 0.354331 -0.0472445 -0.929133
1.632 4.28534 103.656 0.393701 -0.0314964 -0.913386
1.72834 4.28722 103.702 0.472441 -0.0236224 -0.874015
1.82497 4.2896 103.759 0.551181 -0.0236224 -0.826771
1.92197 4.29243 103.828 0.614173 -0.0393703 -0.779527
2.01931 4.29585 103.911 0.669291 -0.0629924 -0.732283
2.11705 4.29977 104.005 0.692914 -0.0787404 -0.708661
2.21506 4.30383 104.104 0.685039 -0.0944884 -0.708661
2.31314 4.30761 104.196 0.653543 -0.0866145 -0.748031
2.41106 4.31097 104.276 0.598425 -0.0708665 -0.787401
2.50891 4.31382 104.346 0.543307 -0.0393704 -0.834646
2.60656 4.31619 104.403 0.488189 -3.52531e-07 -0.866141
2.70413 4.31829 104.453 0.464567 0.0551177 -0.881889
2.80185 4.32037 104.504 0.464567 0.133858 -0.866142
2.89965 4.32256 104.557 0.456693 0.220472 -0.850394
2.99765 4.32485 104.612 0.456693 0.299212 -0.826771
3.09604 4.32747 104.676 0.511811 0.35433 -0.779527
3.19493 4.33067 104.753 0.582677 0.401574 -0.700787
3.39581 4.34052 104.991 0.622047 0.590551 -0.503937
3.4963 4.34507 105.101 0.598425 0.622047 -0.496063
4.02723 4.39564 106.324 -0.535433 0.188976 -0.818897
4.12299 4.39319 106.265 -0.566929 0.141732 -0.803149
4.21817 4.39026 106.194 -0.614174 0.0708657 -0.779528
4.31265 4.38674 106.109 -0.669291 -0.0157485 -0.732284
4.40673 4.38297 106.018 -0.692913 -0.0551185 -0.716536
4.50067 4.37927 105.928 -0.692913 -0.0551185 -0.716536
4.59446 4.3755 105.838 -0.716535 -0.0314964 -0.692913
4.68755 4.37128 105.736 -0.740158 -0.00787436 -0.661418
4.78024 4.36693 105.63 -0.724409 0.0157476 -0.677166
4.87338 4.36305 105.537 -0.677165 0.0393697 -0.724409
4.96689 4.35972 105.456 -0.64567 0.0472437 -0.755906
5.06039 4.35652 105.378 -0.629921 0.0393697 -0.771653
5.15386 4.35337 105.302 -0.606299 0.0236216 -0.787402
5.24748 4.35047 105.233 -0.582677 0.0157476 -0.80315
5.34108 4.34769 105.165 -0.590551 0.00787358 -0.80315
5.43439 4.34476 105.094 -0.606299 0.00787364 -0.787402
5.52747 4.34174 105.021 -0.527559 -4.64618e-07 -0.84252
5.62192 4.3399 104.976 -0.425197 -4.20128e-07 -0.897638
-5.49758 4.27563 101.165 0.409449 0.464567 -0.779527
-5.40692 4.27773 101.215 0.448818 0.464567 -0.755905
-5.31674 4.28028 101.276 0.377952 0.527559 -0.755905
-5.22505 4.28167 101.308 0.173228 0.606299 -0.771654
-5.13207 4.28205 101.318 -3.3775e-08 0.653543 -0.748032
-5.03828 4.28173 101.309 -0.0708662 0.677165 -0.724409
-4.94429 4.28126 101.3 -0.0787402 0.685039 -0.716535
-4.85036 4.2808 101.288 -0.102362 0.677165 -0.724409
-4.75613 4.28007 101.271 -0.133858 0.661417 -0.732283
-4.66182 4.2792 101.249 -0.181102 0.637795 -0.740157
-4.56724 4.27806 101.222 -0.212598 0.614173 -0.748032
-4.47247 4.27675 101.193 -0.220472 0.606299 -0.755905
-4.37798 4.27559 101.165 -0.220473 0.598425 -0.763779
-4.28349 4.27439 101.136 -0.259843 0.598424 -0.748031
-4.18854 4.27269 101.096 -0.322834 0.590551 -0.732283
-4.09337 4.27065 101.048 -0.330709 0.590551 -0.72441
-3.99847 4.26884 101.005 -0.291339 0.598425 -0.740157
-3.90403 4.26741 100.971 -0.244094 0.598425 -0.755905
-3.80981 4.26614 100.941 -0.236221 0.598425 -0.763779
-3.71557 4.26482 100.91 -0.236221 0.582677 -0.763779
-3.62142 4.26356 100.88 -0.23622 0.566928 -0.779527
-3.52743 4.26237 100.851 -0.244094 0.551181 -0.795275
-3.43335 4.26103 100.82 -0.259843 0.535432 -0.795275
-3.33928 4.25964 100.787 -0.236221 0.535432 -0.803149
-3.24548 4.25853 100.761 -0.181102 0.543307 -0.811024
-3.15196 4.25776 100.743 -0.141732 0.543307 -0.818897
-3.05861 4.25712 100.728 -0.141732 0.519685 -0.834646
-2.96523 4.25642 100.711 -0.149606 0.496063 -0.850394
-2.87187 4.2557 100.694 -0.133858 0.480315 -0.858267
-2.77866 4.25517 100.682 -0.0944883 0.464567 -0.874015
-2.68559 4.25483 100.674 -0.0629922 0.440944 -0.889764
-2.59269 4.25464 100.668 -0.0236221 0.43307 -0.897637
-2.49982 4.25461 100.668 -0.0078742 0.43307 -0.897638
-2.40692 4.25452 100.666 -0.0472442 0.440944 -0.889763
-2.31388 4.25413 100.656 -0.0787402 0.440945 -0.889763
-2.22089 4.25378 100.648 -0.0314962 0.440945 -0.889763
-2.12806 4.25384 100.65 0.031496 0.456692 -0.881889
-2.03534 4.25406 100.656 0.0393701 0.488189 -0.866141
-1.94262 4.25423 100.659 0.0551179 0.51181 -0.850393
-1.84996 4.25462 100.669 0.102363 0.511811 -0.842519
-1.75742 4.25527 100.683 0.102362 0.519684 -0.842519
-1.66471 4.25566 100.693 0.047244 0.527559 -0.842519
-1.57188 4.25572 100.694 0.0157479 0.551181 -0.826771
-1.47904 4.25579 100.695 0.031496 0.582676 -0.803149
-1.38629 4.2561 100.703 0.0629922 0.606299 -0.779527
-1.29353 4.25652 100.713 0.0629925 0.629921 -0.76378
-1.20076 4.25685 100.721 0.0472441 0.645669 -0.755905
-1.10789 4.25702 100.725 0.023622 0.661417 -0.740158
-1.01501 4.2571 100.728 0.0078739 0.669291 -0.732284
-0.922127 4.25709 100.727 -4.68799e-08 0.669291 -0.740157
-0.829266 4.25716 100.728 0.0629916 0.661417 -0.740158
-0.736509 4.25783 100.744 0.149606 0.645669 -0.740157
-0.643737 4.25889 100.769 0.165354 0.653543 -0.732283
-0.550937 4.25977 100.79 0.133858 0.661417 -0.732283
-0.458041 4.2604 100.805 0.110236 0.661417 -0.732283
-0.365128 4.26101 100.82 0.0866146 0.669291 -0.724409
-0.272145 4.26143 100.83 0.0787402 0.677165 -0.724409
-0.17925 4.26193 100.841 0.11811 0.685039 -0.708661
-0.0862194 4.26279 100.862 0.188976 0.692913 -0.685039
0.00677352 4.26422 100.896 0.291338 0.692913 -0.653543
0.0998608 4.26655 100.95 0.43307 0.661417 -0.606299
0.286648 4.27535 101.159 0.716536 0.511811 -0.464566
0.380611 4.28287 101.337 0.826772 0.409449 -0.377952
0.475361 4.2943 101.608 0.905511 0.27559 -0.291338
0.571085 4.30982 101.975 0.952755 0.15748 -0.244094
0.667793 4.32704 102.382 0.968504 0.0393701 -0.228346
0.76524 4.34412 102.787 0.96063 -0.0551182 -0.244094
0.862794 4.35839 103.123 0.929133 -0.110236 -0.338582
0.959796 4.36699 103.327 0.818897 -0.110237 -0.551181
1.05606 4.37098 103.421 0.606299 -0.0787405 -0.779527
1.15209 4.37333 103.478 0.425197 -0.0393705 -0.897637
1.24791 4.37486 103.513 0.314961 -3.893e-07 -0.944881
1.34373 4.37606 103.541 0.322835 0.0157476 -0.944882
1.43979 4.37763 103.58 0.362205 0.0314957 -0.929133
1.53582 4.37926 103.617 0.370079 0.0551178 -0.921259
1.63203 4.38094 103.657 0.401574 0.0629918 -0.905511
1.72839 4.38292 103.704 0.472441 0.0708657 -0.874015
1.82507 4.38535 103.762 0.543307 0.0787399 -0.826771
1.92198 4.38829 103.831 0.606299 0.0866139 -0.779527
2.01933 4.39172 103.912 0.653543 0.0708659 -0.740157
2.11704 4.39555 104.003 0.685039 0.0472438 -0.716535
2.21493 4.39958 104.098 0.685039 0.0314959 -0.716535
2.31295 4.40344 104.189 0.661417 0.0236218 -0.740157
2.41099 4.40693 104.272 0.614173 0.0393698 -0.779527
2.50886 4.41002 104.345 0.566929 0.0708659 -0.811023
2.60673 4.41269 104.409 0.527559 0.133858 -0.834645
2.70449 4.41519 104.467 0.511811 0.220473 -0.818897
2.80247 4.41779 104.529 0.511811 0.31496 -0.787401
2.90073 4.42062 104.596 0.472441 0.3937 -0.779527
2.99889 4.42314 104.655 0.456693 0.393701 -0.787401
3.0973 4.42577 104.718 0.527559 0.346456 -0.771653
3.19644 4.42933 104.803 0.637796 0.307087 -0.692912
3.29656 4.43407 104.914 0.740157 0.31496 -0.582676
3.39899 4.44147 105.089 0.669291 0.535433 -0.503936
3.93234 4.49725 106.409 -0.52756 0.188976 -0.818897
4.02815 4.49467 106.348 -0.566929 0.141732 -0.803149
4.12355 4.49176 106.279 -0.598425 0.0944878 -0.787402
4.21838 4.48837 106.199 -0.661418 0.0472437 -0.748031
4.31263 4.48451 106.108 -0.692914 0.00787362 -0.708661
4.40648 4.48048 106.012 -0.700788 -0.00787439 -0.708662
4.50043 4.47665 105.922 -0.68504 -0.0157484 -0.716536
4.59429 4.47293 105.834 -0.700787 -4.25436e-07 -0.708661
4.68759 4.46884 105.737 -0.724409 0.0236217 -0.68504
4.78059 4.4646 105.637 -0.708662 0.0551177 -0.692914
4.87375 4.46074 105.545 -0.677165 0.0708658 -0.72441
4.96722 4.45726 105.463 -0.645669 0.0629918 -0.755905
5.06069 4.45392 105.384 -0.637796 0.0551177 -0.763779
5.15405 4.45067 105.307 -0.614173 0.0472437 -0.779528
5.24762 4.44767 105.236 -0.590551 0.0393697 -0.80315
5.34122 4.4448 105.168 -0.590551 0.0393697 -0.80315
5.43455 4.44177 105.097 -0.614173 0.0393696 -0.787401
5.52753 4.43863 105.022 -0.535433 0.0314956 -0.834646
5.62193 4.43668 104.976 -0.448819 0.0236216 -0.889763
-5.50052 4.37126 101.22 0.425197 0.43307 -0.787401
-5.40995 4.3735 101.271 0.480315 0.440945 -0.748031
-5.32017 4.37648 101.34 0.448818 0.496063 -0.732283
-5.22909 4.37845 101.386 0.267716 0.590551 -0.755905
-5.1366 4.37932 101.407 0.0866138 0.653543 -0.740157
-5.04306 4.37932 101.407 -0.0236221 0.68504 -0.716536
-4.94908 4.37888 101.396 -0.0866142 0.692913 -0.708661
-4.85484 4.37824 101.381 -0.125984 0.677165 -0.716535
-4.76038 4.37734 101.361 -0.165354 0.661417 -0.724409
-4.66579 4.37629 101.336 -0.196851 0.645669 -0.732283
-4.57094 4.37495 101.305 -0.228347 0.637795 -0.732283
-4.47604 4.37354 101.273 -0.220472 0.629921 -0.732283
-4.38145 4.37234 101.245 -0.204724 0.637794 -0.732284
-4.28695 4.37114 101.217 -0.23622 0.637795 -0.724409
-4.19203 4.3695 101.179 -0.299213 0.629921 -0.708662
-4.09684 4.3675 101.133 -0.31496 0.629921 -0.700788
-4.00178 4.36558 101.089 -0.283465 0.637795 -0.708662
-3.90713 4.36398 101.052 -0.251969 0.637795 -0.716536
-3.81274 4.36261 101.02 -0.23622 0.629921 -0.732283
-3.71845 4.36126 100.988 -0.244095 0.622047 -0.740157
-3.62412 4.35981 100.955 -0.251968 0.606299 -0.748031
-3.52977 4.35831 100.921 -0.267716 0.582677 -0.763779
-3.43555 4.35682 100.886 -0.267717 0.566929 -0.771653
-3.34147 4.35546 100.854 -0.228347 0.566929 -0.787402
-3.24769 4.35441 100.829 -0.173228 0.574803 -0.787402
-3.1541 4.3536 100.812 -0.149607 0.582677 -0.795275
-3.06056 4.35277 100.792 -0.165355 0.566929 -0.803149
-2.967 4.35183 100.769 -0.173229 0.543307 -0.811023
-2.87345 4.35096 100.751 -0.149607 0.527558 -0.826772
-2.78011 4.35029 100.735 -0.11811 0.51181 -0.84252
-2.68689 4.34973 100.721 -0.0944882 0.488189 -0.858268
-2.59382 4.34938 100.713 -0.0393702 0.47244 -0.874015
-2.50087 4.34934 100.713 -1.14579e-07 0.464566 -0.881889
-2.40801 4.34936 100.713 -0.0314961 0.480315 -0.874015
-2.315 4.34903 100.705 -0.0708662 0.488189 -0.866142
-2.22189 4.34862 100.696 -0.0236222 0.496062 -0.866142
-2.12911 4.34877 100.7 0.0551183 0.503937 -0.850394
-2.0365 4.34926 100.71 0.0787402 0.527559 -0.834646
-1.94378 4.34962 100.718 0.0708663 0.551181 -0.826771
-1.85109 4.35004 100.728 0.0944878 0.559054 -0.818897
-1.75838 4.35061 100.742 0.102362 0.559055 -0.811023
-1.66564 4.35106 100.753 0.0708665 0.574802 -0.811024
-1.5729 4.3514 100.759 0.0629919 0.606299 -0.787401
-1.48009 4.35178 100.769 0.0787403 0.629921 -0.763779
-1.38733 4.35232 100.781 0.0866144 0.653543 -0.748031
-1.29455 4.35285 100.794 0.0866137 0.661417 -0.732283
-1.20171 4.35332 100.805 0.0708663 0.677165 -0.72441
-1.10889 4.35376 100.815 0.055118 0.692913 -0.708661
-1.01596 4.35405 100.822 0.023622 0.708661 -0.692913
-0.923015 4.35406 100.821 1.16319e-08 0.716535 -0.692913
-0.830023 4.35399 100.82 0.0393701 0.708661 -0.700787
-0.737093 4.35453 100.833 0.125984 0.692913 -0.708661
-0.644284 4.35557 100.857 0.149606 0.669291 -0.716535
-0.551382 4.35649 100.878 0.141733 0.669291 -0.72441
-0.458411 4.35722 100.896 0.125984 0.677165 -0.716536
-0.365451 4.35795 100.912 0.102362 0.68504 -0.708661
-0.272474 4.35849 100.924 0.0944881 0.692913 -0.700788
-0.179421 4.35911 100.938 0.141732 0.708661 -0.685039
-0.0863165 4.36022 100.965 0.220472 0.708661 -0.661417
0.00680466 4.36196 101.005 0.307086 0.708661 -0.629921
0.10001 4.36444 101.063 0.425196 0.677165 -0.590551
0.193372 4.36805 101.146 0.559055 0.614173 -0.535433
0.286959 4.37325 101.266 0.692913 0.535433 -0.464566
0.381019 4.38084 101.442 0.803149 0.440944 -0.377953
0.47573 4.39199 101.699 0.889764 0.307087 -0.307087
0.571396 4.40638 102.033 0.944882 0.165354 -0.267716
0.667846 4.42204 102.395 0.96063 0.047244 -0.251968
0.765086 4.43804 102.767 0.96063 -0.0157481 -0.259842
0.862612 4.45236 103.098 0.937008 -0.0236221 -0.330709
0.959671 4.46171 103.314 0.84252 0.0236219 -0.527559
1.05608 4.46632 103.422 0.637795 0.0866138 -0.755905
1.15212 4.46893 103.482 0.440944 0.133858 -0.881889
1.24802 4.47064 103.521 0.330708 0.165354 -0.92126
1.34386 4.47196 103.552 0.330709 0.173228 -0.921259
1.43992 4.47364 103.591 0.362204 0.181102 -0.905511
1.53603 4.47535 103.63 0.370079 0.19685 -0.897637
1.63224 4.47715 103.672 0.409448 0.204724 -0.881889
1.72868 4.4792 103.72 0.47244 0.212598 -0.850393
1.82534 4.4818 103.779 0.535433 0.220472 -0.803149
1.92236 4.48489 103.851 0.590551 0.220472 -0.763779
2.01974 4.48837 103.932 0.629921 0.212598 -0.740157
2.11735 4.49216 104.019 0.661418 0.188976 -0.716535
2.21526 4.49613 104.112 0.661418 0.173228 -0.716535
2.31329 4.50002 104.202 0.645669 0.173228 -0.732283
2.41127 4.50367 104.286 0.614173 0.188976 -0.755905
2.50931 4.507 104.363 0.582677 0.23622 -0.771653
2.60737 4.5101 104.435 0.543307 0.299212 -0.771653
2.70554 4.51317 104.506 0.543307 0.35433 -0.748031
2.80419 4.51685 104.592 0.551181 0.417323 -0.708661
2.90273 4.52012 104.667 0.464567 0.488189 -0.732283
3.00055 4.52207 104.712 0.393701 0.464566 -0.787401
3.83717 4.5989 106.491 -0.503937 0.188976 -0.834646
3.93334 4.59654 106.436 -0.559055 0.141732 -0.811024
4.02872 4.59339 106.363 -0.590551 0.11811 -0.795275
4.12386 4.59012 106.287 -0.622047 0.0866138 -0.771654
4.21868 4.58657 106.206 -0.677165 0.0629917 -0.724409
4.31284 4.58257 106.113 -0.708662 0.0472437 -0.700787
4.40662 4.57833 106.015 -0.700788 0.0314957 -0.700788
4.50042 4.57437 105.922 -0.685039 0.0314957 -0.724409
4.59431 4.5706 105.835 -0.685039 0.0393697 -0.716536
4.68786 4.56659 105.743 -0.708662 0.0551177 -0.692914
4.78103 4.56246 105.647 -0.700788 0.0787398 -0.700787
4.87425 4.55856 105.556 -0.669291 0.0866138 -0.72441
4.9677 4.55493 105.473 -0.653543 0.0866138 -0.748032
5.06107 4.55146 105.393 -0.645669 0.0708657 -0.755905
5.1544 4.54804 105.314 -0.622048 0.0629918 -0.771654
5.24792 4.54498 105.242 -0.582677 0.0708658 -0.80315
5.34165 4.54209 105.176 -0.582677 0.0787397 -0.803149
5.43503 4.53906 105.106 -0.606299 0.0866138 -0.779527
5.5279 4.53576 105.029 -0.535433 0.0866138 -0.834646
5.6222 4.53368 104.981 -0.456693 0.0866138 -0.881889
-5.50305 4.46666 101.267 0.448819 0.370078 -0.803149
-5.41266 4.46912 101.323 0.535433 0.370079 -0.755905
-5.32327 4.47251 101.399 0.527559 0.417322 -0.732283
-5.23258 4.47495 101.456 0.370079 0.519685 -0.763779
-5.14077 4.47645 101.488 0.188976 0.606299 -0.76378
-5.04775 4.47698 101.502 0.023622 0.661417 -0.740158
-4.95379 4.47665 101.494 -0.0944882 0.669291 -0.724409
-4.8593 4.47582 101.474 -0.15748 0.661417 -0.724409
-4.76452 4.47472 101.45 -0.181103 0.653543 -0.732284
-4.57487 4.47223 101.394 -0.212598 0.653543 -0.716535
-4.48002 4.47086 101.362 -0.204725 0.661417 -0.708662
-4.38535 4.46965 101.335 -0.188976 0.669291 -0.708661
-4.29078 4.46846 101.307 -0.220472 0.669291 -0.700788
-4.19584 4.46689 101.272 -0.267717 0.669292 -0.685039
-4.10075 4.46499 101.228 -0.291339 0.669291 -0.669292
-4.00563 4.46306 101.185 -0.27559 0.677165 -0.669292
-3.81614 4.45971 101.11 -0.244095 0.669291 -0.692913
-3.72164 4.45819 101.075 -0.251969 0.653543 -0.700787
-3.62713 4.45661 101.039 -0.259843 0.645669 -0.708661
-3.53262 4.45494 101.001 -0.275591 0.637795 -0.708661
-3.43811 4.45316 100.961 -0.275591 0.622047 -0.724409
-3.25 4.45058 100.903 -0.157481 0.622047 -0.76378
-3.1565 4.4499 100.887 -0.141732 0.622047 -0.763779
-3.06279 4.44897 100.866 -0.181102 0.614172 -0.755905
-2.96901 4.4478 100.84 -0.181102 0.606299 -0.76378
-2.87541 4.44686 100.818 -0.149606 0.606299 -0.771654
-2.78196 4.44609 100.8 -0.141732 0.590551 -0.787401
-2.68848 4.44526 100.783 -0.11811 0.574803 -0.80315
-2.59526 4.44472 100.769 -0.0551181 0.566929 -0.818897
-2.50224 4.44464 100.768 -1.04352e-07 0.559055 -0.818897
-2.40943 4.44478 100.771 -0.00787409 0.566928 -0.811023
-2.31639 4.44457 100.766 -0.0551181 0.582677 -0.803149
-2.22325 4.44418 100.757 -0.0157481 0.590551 -0.80315
-2.13041 4.44436 100.762 0.0708659 0.598425 -0.795275
-2.03778 4.44504 100.777 0.102363 0.606299 -0.779527
-1.94517 4.44564 100.79 0.0944881 0.622047 -0.771653
-1.85238 4.4461 100.801 0.094488 0.629921 -0.763779
-1.75967 4.44671 100.815 0.102362 0.637795 -0.755905
-1.66692 4.44727 100.827 0.0944883 0.653544 -0.748031
-1.57415 4.44787 100.841 0.102362 0.669291 -0.72441
-1.4814 4.4486 100.857 0.110236 0.685039 -0.708662
-1.38863 4.44933 100.874 0.102363 0.700787 -0.700787
-1.29577 4.44992 100.887 0.0866147 0.708661 -0.692913
-1.20286 4.45049 100.901 0.0944884 0.716535 -0.685039
-1.10999 4.45118 100.916 0.0866144 0.724409 -0.677165
-1.01704 4.45168 100.927 0.0393701 0.732283 -0.669291
-0.923976 4.45175 100.929 -3.70325e-08 0.740157 -0.661417
-0.830934 4.45172 100.927 0.023622 0.740157 -0.661417
-0.737908 4.45203 100.935 0.0708666 0.732284 -0.669291
-0.644887 4.4526 100.948 0.102362 0.700787 -0.692913
-0.551846 4.45335 100.966 0.133859 0.685039 -0.708661
-0.458843 4.4543 100.987 0.141732 0.685039 -0.708661
-0.365835 4.4552 101.007 0.11811 0.700787 -0.700787
-0.272721 4.45583 101.021 0.118111 0.708661 -0.685039
-0.179555 4.45666 101.04 0.165354 0.716536 -0.669291
-0.0864261 4.45806 101.072 0.244094 0.716535 -0.637795
0.00678622 4.46002 101.116 0.322834 0.716535 -0.614173
0.100118 4.46264 101.176 0.425197 0.685039 -0.574803
0.287303 4.47184 101.385 0.677165 0.566929 -0.448819
0.381467 4.47959 101.561 0.787401 0.472441 -0.377952
0.476231 4.49026 101.802 0.866141 0.354331 -0.322834
0.571755 4.50329 102.097 0.929134 0.212599 -0.299212
0.668037 4.51749 102.419 0.952756 0.0944879 -0.27559
0.76511 4.53293 102.77 0.96063 0.0551181 -0.267716
0.862665 4.54775 103.105 0.937007 0.0866142 -0.322834
0.95989 4.55782 103.334 0.834646 0.19685 -0.503936
1.05631 4.56287 103.448 0.622047 0.291339 -0.724409
1.15239 4.56552 103.508 0.417322 0.330709 -0.834645
1.24833 4.56731 103.548 0.31496 0.338583 -0.881889
1.34422 4.56869 103.58 0.31496 0.338583 -0.881889
1.44028 4.57043 103.619 0.35433 0.338582 -0.866142
1.53644 4.57221 103.659 0.370079 0.346456 -0.858267
1.63272 4.57412 103.703 0.401574 0.354331 -0.834645
1.72919 4.57634 103.753 0.456692 0.362204 -0.803149
1.82596 4.5791 103.815 0.519685 0.362204 -0.76378
1.92313 4.58232 103.89 0.566929 0.354331 -0.732283
2.02048 4.58588 103.97 0.598425 0.346456 -0.708661
2.11812 4.58969 104.057 0.622047 0.338583 -0.700787
2.21601 4.59367 104.147 0.629921 0.330709 -0.692912
2.31401 4.59765 104.236 0.622047 0.338583 -0.700787
2.41214 4.60145 104.323 0.590551 0.35433 -0.716535
2.51037 4.60509 104.406 0.566929 0.370079 -0.724409
2.60868 4.60878 104.488 0.543307 0.370078 -0.748031
2.70691 4.61187 104.56 0.566929 0.346456 -0.732283
2.80574 4.61588 104.65 0.606299 0.385827 -0.685038
2.9046 4.61958 104.734 0.480315 0.527558 -0.692913
3.83802 4.6982 106.516 -0.606299 0.165354 -0.771653
3.93381 4.69529 106.45 -0.574804 0.102362 -0.80315
4.02921 4.69196 106.376 -0.590552 0.102362 -0.787402
4.1244 4.68875 106.301 -0.629922 0.11811 -0.763779
4.21912 4.68499 106.217 -0.685039 0.102362 -0.716535
4.31313 4.68072 106.12 -0.716536 0.0708658 -0.692914
4.40685 4.6764 106.021 -0.700787 0.0708658 -0.700787
4.50081 4.67242 105.931 -0.677165 0.0787398 -0.72441
4.59478 4.66858 105.845 -0.685039 0.0787398 -0.716535
4.68831 4.66453 105.753 -0.700788 0.0787398 -0.700787
4.78158 4.66039 105.659 -0.692914 0.0866138 -0.708661
4.87492 4.65646 105.571 -0.669291 0.102362 -0.724409
4.96826 4.65274 105.486 -0.653543 0.102362 -0.740157
5.0616 4.64913 105.404 -0.64567 0.102362 -0.748032
5.15491 4.64557 105.324 -0.614173 0.102362 -0.771653
5.24843 4.64245 105.252 -0.574803 0.110236 -0.803149
5.34219 4.63959 105.187 -0.574803 0.110236 -0.803149
5.43564 4.63655 105.118 -0.606299 0.110236 -0.779528
5.52859 4.63318 105.042 -0.527559 0.133858 -0.826772
5.62295 4.63108 104.995 -0.448819 0.149605 -0.874016
-5.50508 4.56169 101.303 0.47244 0.27559 -0.826771
-5.41466 4.56423 101.36 0.574803 0.259842 -0.763779
-5.32551 4.56795 101.443 0.606299 0.307086 -0.724409
-5.23551 4.57103 101.511 0.496062 0.425196 -0.748031
-5.1444 4.57324 101.56 0.314961 0.551181 -0.763779
-5.05192 4.57435 101.585 0.0866141 0.629921 -0.763779
-4.95815 4.57423 101.582 -0.0787402 0.653543 -0.748032
-4.86348 4.57329 101.561 -0.165354 0.645669 -0.732283
-4.76858 4.57211 101.535 -0.181102 0.645669 -0.732284
-4.67379 4.57099 101.51 -0.181102 0.653543 -0.724409
-4.57906 4.56986 101.484 -0.188976 0.669291 -0.708661
-4.48423 4.56861 101.457 -0.188976 0.677165 -0.700787
-4.38953 4.56744 101.432 -0.181102 0.692913 -0.692913
-4.29491 4.56628 101.406 -0.19685 0.692913 -0.685039
-4.20007 4.56483 101.373 -0.244095 0.692913 -0.669291
-4.10494 4.56299 101.332 -0.267716 0.692913 -0.661417
-4.00981 4.56111 101.291 -0.259842 0.700787 -0.653544
-3.91487 4.55935 101.252 -0.259842 0.700787 -0.653544
-3.82001 4.55752 101.21 -0.259842 0.692913 -0.661417
-3.7252 4.55572 101.171 -0.251968 0.68504 -0.669291
-3.63056 4.55408 101.135 -0.244095 0.685039 -0.677166
-3.53606 4.55245 101.098 -0.259842 0.685039 -0.669291
-3.44135 4.55051 101.055 -0.275591 0.685039 -0.669291
-3.34674 4.54863 101.014 -0.228347 0.677165 -0.685039
-3.25274 4.5474 100.986 -0.15748 0.677165 -0.708661
-3.15915 4.54672 100.971 -0.133858 0.669291 -0.716535
-3.06536 4.54578 100.951 -0.173228 0.661417 -0.716535
-2.9715 4.54458 100.924 -0.173228 0.661417 -0.716535
-2.87779 4.54358 100.901 -0.149607 0.669291 -0.724409
-2.7842 4.54271 100.883 -0.141732 0.661417 -0.724409
-2.6906 4.54177 100.862 -0.133858 0.653543 -0.732284
-2.59724 4.54108 100.845 -0.0629921 0.653543 -0.740157
-2.50417 4.54096 100.843 -3.3775e-08 0.653543 -0.748032
-2.41126 4.54114 100.847 0.00787397 0.661417 -0.740157
-2.31823 4.54108 100.845 -0.0314961 0.669291 -0.732284
-2.22511 4.54079 100.839 -0.00787401 0.677165 -0.732283
-2.13219 4.54098 100.843 0.0629925 0.677165 -0.724409
-2.03948 4.54166 100.859 0.102362 0.669291 -0.732283
-1.94677 4.54233 100.873 0.094488 0.669291 -0.732283
-1.85398 4.54292 100.887 0.110236 0.669291 -0.724409
-1.7612 4.54368 100.904 0.11811 0.685039 -0.708661
-1.66844 4.54443 100.921 0.11811 0.700787 -0.700787
-1.57569 4.54525 100.938 0.125984 0.708662 -0.685039
-1.48292 4.54618 100.959 0.133858 0.716536 -0.677165
-1.39006 4.54704 100.978 0.110236 0.72441 -0.677165
-1.2971 4.54768 100.993 0.0944877 0.72441 -0.669291
-1.20411 4.54831 101.007 0.102362 0.732283 -0.669291
-1.11118 4.54908 101.023 0.0944882 0.732283 -0.669291
-1.01811 4.54961 101.036 0.0551181 0.732283 -0.669291
-0.924992 4.54982 101.04 0.0314961 0.748031 -0.653543
-0.831835 4.55001 101.045 0.0314961 0.755905 -0.645669
-0.738738 4.55022 101.048 0.0236221 0.755905 -0.645669
-0.645547 4.55031 101.051 0.0472441 0.748031 -0.653543
-0.552381 4.55078 101.062 0.110236 0.724409 -0.669291
-0.459286 4.5518 101.084 0.141732 0.716535 -0.669291
-0.366183 4.55279 101.106 0.133858 0.724409 -0.669291
-0.272959 4.5536 101.124 0.141732 0.732283 -0.661417
-0.179748 4.5547 101.149 0.196851 0.740157 -0.637795
-0.0865449 4.55639 101.185 0.259843 0.740157 -0.614173
0.00676884 4.55858 101.234 0.330708 0.732283 -0.59055
0.193788 4.56538 101.385 0.543307 0.653543 -0.503937
0.287688 4.57109 101.513 0.669291 0.582677 -0.440945
0.381922 4.57896 101.687 0.771654 0.496063 -0.385826
0.476749 4.58895 101.909 0.84252 0.385827 -0.346456
0.572184 4.60061 102.168 0.905511 0.267716 -0.322834
0.668338 4.61384 102.463 0.937007 0.181102 -0.283464
0.765348 4.62946 102.808 0.944881 0.15748 -0.267716
0.863089 4.64507 103.155 0.913386 0.220473 -0.322834
0.960377 4.65567 103.39 0.795276 0.346456 -0.488188
1.05692 4.66069 103.503 0.559055 0.448819 -0.692912
1.15293 4.66318 103.557 0.370078 0.472441 -0.787401
1.24893 4.66494 103.597 0.291338 0.472441 -0.818897
1.34488 4.66634 103.628 0.299212 0.472441 -0.818897
1.44097 4.66813 103.667 0.330709 0.472441 -0.811023
1.53717 4.67001 103.709 0.354331 0.480315 -0.795275
1.6336 4.67209 103.756 0.393701 0.496063 -0.763779
1.73016 4.67456 103.81 0.440945 0.503937 -0.732283
1.82705 4.67749 103.876 0.488189 0.503937 -0.700787
1.92424 4.68082 103.95 0.527559 0.496063 -0.685039
2.02162 4.68443 104.029 0.559055 0.488189 -0.661417
2.11935 4.68834 104.117 0.574803 0.480314 -0.645669
2.21725 4.69246 104.207 0.582677 0.488188 -0.637794
2.31538 4.69658 104.299 0.566929 0.503937 -0.645669
2.41367 4.70062 104.389 0.519685 0.503937 -0.677165
2.51174 4.70395 104.463 0.519685 0.448819 -0.716535
2.60989 4.70727 104.537 0.519685 0.385827 -0.748031
2.70793 4.71012 104.6 0.566929 0.267716 -0.771653
3.64948 4.80673 106.746 -0.755906 0.181102 -0.622048
3.83869 4.7972 106.534 -0.669291 0.11811 -0.72441
3.93402 4.79362 106.455 -0.582677 0.102362 -0.795275
4.02967 4.79068 106.389 -0.559055 0.133858 -0.811023
4.1252 4.78765 106.322 -0.622047 0.15748 -0.76378
4.21976 4.78367 106.234 -0.692914 0.133858 -0.700787
4.31357 4.77909 106.132 -0.716536 0.102362 -0.677165
4.40737 4.77467 106.034 -0.692914 0.102362 -0.708662
4.50146 4.77073 105.947 -0.677165 0.110236 -0.72441
4.59534 4.76678 105.859 -0.68504 0.0944878 -0.708661
4.6888 4.76256 105.765 -0.700787 0.0866138 -0.700788
4.78218 4.75839 105.673 -0.685039 0.0944878 -0.716536
4.87561 4.75448 105.586 -0.669291 0.110236 -0.732283
4.96891 4.75067 105.5 -0.653543 0.11811 -0.740158
5.06228 4.74694 105.418 -0.637796 0.11811 -0.748031
5.15563 4.74341 105.339 -0.606299 0.133858 -0.771653
5.24929 4.74024 105.269 -0.574803 0.149606 -0.795276
5.34302 4.73728 105.203 -0.574804 0.141732 -0.795276
5.43644 4.7341 105.133 -0.598425 0.141732 -0.787402
5.52948 4.73082 105.059 -0.503937 0.173228 -0.834645
5.62408 4.72887 105.016 -0.409449 0.204724 -0.881889
-5.50643 4.65624 101.329 0.464567 0.149606 -0.866141
-5.41584 4.65869 101.381 0.598425 0.133858 -0.779527
-5.32698 4.66274 101.469 0.685039 0.181102 -0.700786
-5.23787 4.66675 101.557 0.622047 0.322834 -0.708661
-5.14782 4.66999 101.627 0.440945 0.496062 -0.740157
-5.05586 4.67164 101.664 0.165354 0.606299 -0.771653
-4.96222 4.67175 101.666 -0.0393701 0.645669 -0.755905
-4.86759 4.67092 101.648 -0.141732 0.661417 -0.724409
-4.77268 4.66977 101.624 -0.173228 0.669291 -0.708661
-4.67786 4.66868 101.6 -0.15748 0.677165 -0.708661
-4.58329 4.66775 101.579 -0.149606 0.692913 -0.700788
-4.48862 4.66672 101.556 -0.165354 0.700787 -0.685039
-4.39385 4.66557 101.532 -0.165354 0.700787 -0.685039
-4.2992 4.66445 101.508 -0.181102 0.708661 -0.677165
-4.20436 4.66308 101.478 -0.228346 0.700787 -0.661418
-4.10923 4.66131 101.439 -0.259842 0.700787 -0.653544
-4.01403 4.65944 101.399 -0.259843 0.708662 -0.653543
-3.824 4.65571 101.317 -0.267716 0.700787 -0.653543
-3.72906 4.65381 101.275 -0.244095 0.700787 -0.653543
-3.63436 4.65218 101.24 -0.228346 0.708661 -0.653543
-3.53984 4.65061 101.206 -0.244095 0.708661 -0.645669
-3.44505 4.64871 101.165 -0.259843 0.716535 -0.637795
-3.25614 4.64535 101.091 -0.173228 0.724409 -0.653543
-3.16222 4.64433 101.069 -0.157481 0.708661 -0.677165
-3.0683 4.64325 101.045 -0.173228 0.692913 -0.692914
-2.97434 4.64206 101.02 -0.165354 0.692913 -0.692913
-2.88055 4.64107 100.999 -0.133858 0.700788 -0.692913
-2.7869 4.6402 100.979 -0.141732 0.700787 -0.692913
-2.69315 4.63917 100.958 -0.133858 0.700788 -0.692913
-2.59966 4.6384 100.94 -0.0629921 0.716535 -0.692913
-2.5065 4.63829 100.938 0.00787398 0.716536 -0.685039
-2.41354 4.63852 100.943 0.00787395 0.724409 -0.685039
-2.32041 4.6385 100.943 -0.00787409 0.724409 -0.677165
-2.22732 4.63838 100.939 -1.82191e-08 0.732283 -0.677165
-2.13432 4.63859 100.944 0.0472441 0.724409 -0.677165
-2.04143 4.63902 100.953 0.0629921 0.708661 -0.692913
-1.94848 4.6395 100.965 0.0866143 0.692913 -0.700787
-1.85569 4.6402 100.979 0.125985 0.692913 -0.700787
-1.76291 4.64117 101.001 0.141732 0.700787 -0.692913
-1.67011 4.64214 101.022 0.141732 0.708661 -0.685039
-1.57728 4.64309 101.043 0.141732 0.716535 -0.677165
-1.48438 4.64405 101.064 0.133858 0.716536 -0.677165
-1.39152 4.64497 101.083 0.11811 0.716535 -0.685039
-1.29847 4.64569 101.099 0.102362 0.716536 -0.685039
-1.20544 4.64638 101.114 0.102363 0.716535 -0.677165
-1.11237 4.64709 101.129 0.0944878 0.716535 -0.677165
-1.01917 4.64761 101.141 0.0787399 0.724409 -0.669291
-0.926013 4.64811 101.152 0.0708659 0.740157 -0.653543
-0.832824 4.64867 101.164 0.0629921 0.763779 -0.637795
-0.739591 4.64897 101.171 0.023622 0.771653 -0.622047
-0.646307 4.64896 101.17 0.0236221 0.779528 -0.622047
-0.553054 4.64927 101.176 0.0787403 0.771653 -0.622047
-0.45979 4.65008 101.195 0.11811 0.755905 -0.629921
-0.366547 4.65107 101.216 0.133858 0.755905 -0.629921
-0.273271 4.65211 101.239 0.15748 0.755905 -0.622047
-0.180009 4.65346 101.267 0.212598 0.755905 -0.606299
-0.0866236 4.65534 101.309 0.27559 0.755906 -0.582677
0.00681133 4.65774 101.361 0.330708 0.748031 -0.566929
0.100351 4.66077 101.427 0.417323 0.724409 -0.535432
0.194047 4.66495 101.518 0.535433 0.677165 -0.496062
0.288063 4.67083 101.647 0.653543 0.598426 -0.440945
0.382384 4.6786 101.814 0.748032 0.519685 -0.401574
0.477267 4.68793 102.018 0.818898 0.433071 -0.370078
0.572647 4.6988 102.255 0.874015 0.346456 -0.330708
0.668858 4.71196 102.542 0.905511 0.283464 -0.283464
0.766055 4.7282 102.895 0.921259 0.275591 -0.267716
0.863872 4.7443 103.246 0.88189 0.322835 -0.322834
0.961153 4.75478 103.473 0.740157 0.448819 -0.488188
1.05764 4.75947 103.575 0.496063 0.535433 -0.677165
1.2497 4.76348 103.662 0.275591 0.566929 -0.771653
1.34577 4.76496 103.695 0.283465 0.574803 -0.763779
1.44192 4.76685 103.735 0.322834 0.574803 -0.740157
1.53824 4.76888 103.78 0.346457 0.590551 -0.716535
1.63477 4.77128 103.832 0.385827 0.606299 -0.685039
1.73154 4.77406 103.893 0.417322 0.614173 -0.653543
1.9258 4.78068 104.036 0.480315 0.622047 -0.614173
2.12116 4.78853 104.207 0.519685 0.629921 -0.566929
2.31768 4.7974 104.401 0.472441 0.669291 -0.566929
2.41576 4.80094 104.478 0.385827 0.661417 -0.629921
2.51322 4.80306 104.524 0.385827 0.551181 -0.732283
3.46218 4.91879 107.042 -0.779528 0.283464 -0.543307
3.55635 4.91255 106.906 -0.795276 0.220472 -0.551182
3.65029 4.90629 106.77 -0.779527 0.15748 -0.590552
3.74471 4.901 106.655 -0.748031 0.110236 -0.64567
3.83919 4.8961 106.548 -0.677166 0.133858 -0.716535
3.93449 4.89241 106.468 -0.566929 0.181102 -0.795276
4.0305 4.88972 106.41 -0.52756 0.204724 -0.818898
4.12608 4.88677 106.345 -0.614174 0.19685 -0.755905
4.22054 4.88259 106.254 -0.708661 0.15748 -0.685039
4.31421 4.87771 106.148 -0.724409 0.133858 -0.669291
4.40802 4.87321 106.05 -0.685039 0.141732 -0.700787
4.50213 4.86922 105.963 -0.677166 0.133858 -0.716535
4.59592 4.86497 105.872 -0.700788 0.110236 -0.700787
4.68926 4.86052 105.775 -0.700788 0.0944879 -0.700788
4.78272 4.8564 105.685 -0.669291 0.102362 -0.724409
4.8763 4.85256 105.601 -0.661418 0.11811 -0.732283
4.96969 4.84864 105.516 -0.653544 0.125984 -0.740157
5.06305 4.84489 105.434 -0.629922 0.141732 -0.755906
5.15657 4.84141 105.358 -0.598425 0.15748 -0.779527
5.2503 4.83822 105.289 -0.574803 0.165354 -0.795276
5.34399 4.83514 105.222 -0.574803 0.165354 -0.795276
5.43737 4.83187 105.151 -0.582677 0.173228 -0.787401
5.53065 4.8287 105.081 -0.480315 0.204724 -0.84252
5.62548 4.82687 105.042 -0.370079 0.228346 -0.889764
-5.50693 4.75011 101.338 0.456693 -0.0157484 -0.88189
-5.41622 4.7525 101.388 0.622048 -3.06892e-07 -0.771653
-5.32761 4.75688 101.482 0.740158 0.0393698 -0.661416
-5.23958 4.76193 101.591 0.732283 0.165354 -0.653542
-5.15071 4.76639 101.686 0.582677 0.346456 -0.724409
-5.05948 4.76879 101.736 0.307087 0.503937 -0.803149
-4.96627 4.76939 101.75 0.0551181 0.606299 -0.787401
-4.87215 4.76909 101.743 -0.0708662 0.669291 -0.732284
-4.77744 4.76822 101.724 -0.133858 0.700788 -0.692913
-4.68249 4.76706 101.701 -0.149607 0.708661 -0.677165
-4.58785 4.76615 101.68 -0.133858 0.708661 -0.677165
-4.49317 4.76522 101.661 -0.141732 0.716535 -0.677165
-4.39845 4.76416 101.638 -0.157481 0.716535 -0.669291
-4.30368 4.76301 101.613 -0.173229 0.72441 -0.661417
-4.20879 4.76165 101.584 -0.204724 0.716535 -0.653543
-4.11368 4.75999 101.549 -0.23622 0.716535 -0.645669
-4.01846 4.75812 101.509 -0.251969 0.716535 -0.637796
-3.92322 4.75618 101.468 -0.267717 0.708661 -0.637795
-3.82804 4.75415 101.424 -0.267716 0.708661 -0.645669
-3.733 4.75225 101.384 -0.23622 0.716535 -0.645669
-3.63831 4.75068 101.35 -0.220473 0.716535 -0.645669
-3.54366 4.74909 101.316 -0.228346 0.724409 -0.645669
-3.44894 4.74729 101.277 -0.244094 0.72441 -0.637795
-3.35428 4.74554 101.241 -0.220473 0.732283 -0.629921
-3.25991 4.74406 101.209 -0.19685 0.740157 -0.637795
-3.16559 4.7426 101.178 -0.204725 0.724409 -0.653543
-3.07131 4.74108 101.145 -0.204724 0.700787 -0.677165
-2.97721 4.73978 101.117 -0.15748 0.692914 -0.692913
-2.88343 4.73893 101.1 -0.11811 0.700787 -0.692913
-2.78973 4.73814 101.083 -0.11811 0.716536 -0.677165
-2.69595 4.73717 101.062 -0.110236 0.732283 -0.661417
-2.60237 4.73647 101.047 -0.0393701 0.748031 -0.653543
-2.50929 4.73659 101.049 0.0236221 0.755905 -0.645669
-2.41623 4.73687 101.055 0.015748 0.763779 -0.637795
-2.32302 4.73684 101.055 -4.63246e-08 0.76378 -0.637795
-2.22984 4.73682 101.054 0.00787404 0.76378 -0.637795
-2.13669 4.737 101.058 0.015748 0.763779 -0.637795
-2.04351 4.73705 101.06 0.015748 0.748031 -0.653543
-1.95042 4.73721 101.062 0.0551181 0.732283 -0.669291
-1.85748 4.73785 101.076 0.11811 0.716535 -0.677165
-1.76463 4.7389 101.099 0.149606 0.708661 -0.677165
-1.67182 4.74005 101.123 0.149606 0.708661 -0.677165
-1.57889 4.74107 101.145 0.141733 0.708661 -0.677165
-1.48588 4.74197 101.165 0.125984 0.708662 -0.685039
-1.39287 4.74279 101.181 0.11811 0.708661 -0.692913
-1.29975 4.74353 101.198 0.110236 0.708661 -0.692913
-1.20662 4.74431 101.214 0.110236 0.708661 -0.692913
-1.11341 4.74504 101.23 0.102362 0.708661 -0.685039
-1.02022 4.74573 101.245 0.110236 0.72441 -0.677165
-0.927032 4.74656 101.262 0.11811 0.740157 -0.653543
-0.833833 4.7475 101.282 0.102362 0.755905 -0.637795
-0.74049 4.74814 101.296 0.0629922 0.779528 -0.622047
-0.647139 4.74841 101.302 0.03937 0.787402 -0.598425
-0.553779 4.74869 101.307 0.0551181 0.795275 -0.590551
-0.460381 4.74925 101.319 0.0944882 0.787401 -0.598425
-0.366984 4.75012 101.339 0.125985 0.787402 -0.598425
-0.273651 4.75132 101.363 0.165354 0.779527 -0.590551
-0.180187 4.75285 101.397 0.220472 0.779528 -0.582677
-0.0867715 4.75499 101.441 0.283464 0.771653 -0.559054
0.00677519 4.75764 101.498 0.338583 0.76378 -0.543306
0.100463 4.76084 101.567 0.409449 0.740157 -0.519685
0.194336 4.76517 101.659 0.527559 0.692913 -0.480315
0.288397 4.77109 101.785 0.629922 0.629921 -0.440944
