ply
format ascii 1.0
comment Created by Open3D
element vertex 883
property double x
property double y
property double z
property double nx
property double ny
property double nz
end_header
-2.48275 0.906821 99.9796 -0.133858 -0.244095 -0.952756
-2.39013 0.906663 99.9634 -0.165355 -0.228347 -0.952756
-2.2975 0.906493 99.9462 -0.149606 -0.204724 -0.96063
-2.20501 0.90636 99.932 -0.133858 -0.188977 -0.968503
-2.11259 0.906243 99.9179 -0.110236 -0.188977 -0.968503
-2.02029 0.906171 99.9087 -0.0472443 -0.188977 -0.976378
-1.92808 0.906143 99.9076 -0.0314963 -0.196851 -0.976378
-1.83591 0.906112 99.9015 -0.125984 -0.181103 -0.968503
-1.74337 0.905917 99.8833 -0.220473 -0.141733 -0.960629
-1.65094 0.905723 99.8591 -0.173229 -0.110237 -0.976378
-1.55866 0.90562 99.849 -0.0551183 -0.102363 -0.992126
-1.46657 0.905626 99.8509 -0.0393702 -0.133858 -0.984251
-1.37445 0.905582 99.8438 -0.102362 -0.165354 -0.976377
-1.28218 0.90546 99.8317 -0.0787403 -0.196851 -0.968503
-1.1901 0.905437 99.8286 0.0472442 -0.236221 -0.968504
-1.09814 0.905538 99.8415 0.173229 -0.275591 -0.937007
-1.00633 0.905754 99.8635 0.244095 -0.330709 -0.905511
-0.91451 0.906016 99.8916 0.291338 -0.409449 -0.858267
-0.822631 0.906328 99.9286 0.354331 -0.480316 -0.795276
-0.639008 0.907279 100.033 0.448819 -0.543308 -0.700787
-0.547095 0.907843 100.095 0.488189 -0.559056 -0.661418
-0.455143 0.908513 100.168 0.527559 -0.574803 -0.622047
-0.363049 0.909252 100.25 0.543307 -0.582677 -0.590552
-0.270822 0.910032 100.337 0.559055 -0.582678 -0.582677
-0.178485 0.910869 100.428 0.574803 -0.574804 -0.56693
0.00673256 0.912604 100.618 0.6063 -0.559055 -0.559055
0.0996613 0.913546 100.723 0.64567 -0.535433 -0.527559
0.192749 0.914668 100.846 0.677165 -0.535433 -0.488189
0.28616 0.915882 100.981 0.677165 -0.56693 -0.448819
0.37981 0.917218 101.127 0.685039 -0.598425 -0.409449
0.473851 0.91867 101.288 0.677165 -0.622048 -0.370079
0.568237 0.920253 101.463 0.692914 -0.629922 -0.338583
0.663111 0.922141 101.669 0.732284 -0.6063 -0.291339
0.75904 0.924712 101.955 0.80315 -0.551181 -0.204724
0.856592 0.928551 102.378 0.818898 -0.543307 -0.165355
0.955334 0.932804 102.846 0.811024 -0.543307 -0.196851
1.05365 0.93584 103.182 0.803149 -0.433071 -0.393701
1.15039 0.937153 103.326 0.614174 -0.354331 -0.692914
1.24623 0.937615 103.375 0.330709 -0.220473 -0.913386
1.34184 0.937752 103.393 0.165355 -0.125985 -0.976378
1.43734 0.937898 103.407 0.149607 -0.0787406 -0.984252
1.53291 0.938014 103.42 0.15748 -0.0472444 -0.984251
1.62854 0.938155 103.436 0.228346 -0.0314964 -0.968503
1.7244 0.938399 103.464 0.35433 -0.0157483 -0.929133
1.82063 0.938807 103.509 0.488189 -0.0157483 -0.866141
1.91724 0.939399 103.573 0.566929 -0.0472443 -0.818897
2.01414 0.940039 103.644 0.56693 -0.0944884 -0.811023
2.1111 0.940634 103.711 0.527559 -0.15748 -0.826772
2.20791 0.941167 103.768 0.472441 -0.220473 -0.842519
2.30471 0.941637 103.818 0.425197 -0.283465 -0.850394
2.4016 0.942042 103.866 0.409449 -0.338583 -0.842519
2.49847 0.942493 103.913 0.409449 -0.377953 -0.826771
2.59554 0.942938 103.962 0.417323 -0.409449 -0.80315
2.69277 0.943422 104.015 0.433071 -0.440945 -0.779527
2.79023 0.943925 104.072 0.448819 -0.464567 -0.755906
2.88786 0.944464 104.131 0.456693 -0.480315 -0.740157
2.98567 0.945022 104.193 0.464567 -0.496064 -0.724409
3.08365 0.945618 104.258 0.488189 -0.503938 -0.708662
3.18192 0.946248 104.327 0.488189 -0.511811 -0.700787
3.28034 0.946864 104.397 0.480316 -0.511811 -0.700787
3.3788 0.947485 104.465 0.480316 -0.511811 -0.700787
3.47743 0.9481 104.533 0.472441 -0.503938 -0.716536
3.57593 0.948692 104.596 0.433071 -0.503937 -0.740158
3.67427 0.949155 104.649 0.385827 -0.48819 -0.771654
3.7725 0.949578 104.696 0.370079 -0.464567 -0.795275
3.87073 0.949985 104.742 0.370079 -0.433072 -0.811024
3.96898 0.950379 104.785 0.393701 -0.401575 -0.818897
4.06744 0.950833 104.833 0.456693 -0.385827 -0.795276
4.16665 0.951397 104.897 0.527559 -0.370079 -0.755906
4.26645 0.952086 104.972 0.574803 -0.377953 -0.716535
4.36664 0.952833 105.054 0.598426 -0.393702 -0.692914
4.46736 0.953658 105.144 0.629922 -0.401575 -0.661418
4.56872 0.954548 105.245 0.661417 -0.409449 -0.614174
4.67104 0.955656 105.364 0.622048 -0.488189 -0.606299
4.77214 0.956422 105.451 0.535433 -0.559056 -0.629922
-5.42135 0.996825 99.7641 0.653544 0.086614 -0.740157
-5.33358 0.997619 99.8416 0.771654 0.0629921 -0.622047
-5.24921 0.999085 99.9886 0.874016 0.015748 -0.472441
-5.16554 1.00074 100.154 0.874016 -0.0472442 -0.472442
-5.08043 1.00217 100.297 0.795276 -0.141732 -0.574803
-4.99273 1.00313 100.395 0.6063 -0.259842 -0.740158
-4.90261 1.00364 100.444 0.283464 -0.362205 -0.881889
-4.81037 1.00372 100.452 -0.0551183 -0.370079 -0.92126
-4.71673 1.00351 100.43 -0.251969 -0.275591 -0.921259
-4.62275 1.00321 100.401 -0.291339 -0.149607 -0.937008
-4.52887 1.00293 100.372 -0.307087 -0.0708666 -0.944881
-4.43483 1.00259 100.341 -0.362205 -0.0314965 -0.929134
-4.3404 1.00215 100.297 -0.40945 -4.25592e-07 -0.905512
-4.24604 1.00171 100.252 -0.346457 0.0393696 -0.929134
-4.15238 1.00142 100.224 -0.228346 0.0472436 -0.968503
-4.05933 1.00126 100.208 -0.157481 0.0236216 -0.984252
-3.96641 1.00114 100.194 -0.133859 0.00787362 -0.984252
-3.87363 1.00104 100.183 -0.133858 0.0157476 -0.984252
-3.78072 1.0009 100.17 -0.228347 0.00787362 -0.968504
-3.68719 1.00059 100.14 -0.338583 -0.0157485 -0.937007
-3.59343 1.00019 100.1 -0.322835 -0.0314966 -0.937007
-3.50013 0.999913 100.072 -0.236221 0.0157476 -0.968504
-3.40722 0.999729 100.055 -0.133858 0.0787398 -0.984252
-3.31475 0.999667 100.047 -0.00787418 0.0944878 -0.992126
-3.22264 0.999717 100.052 0.0314958 0.0472437 -0.992125
-3.1305 0.999755 100.055 -0.0708663 -0.00787442 -0.992125
-3.03781 0.999615 100.042 -0.181102 -0.0629926 -0.976377
-2.94496 0.999418 100.023 -0.181102 -0.11811 -0.968504
-2.85227 0.999262 100.007 -0.157481 -0.157481 -0.968504
-2.75966 0.999117 99.992 -0.133858 -0.181103 -0.968503
-2.66712 0.998997 99.9788 -0.11811 -0.181103 -0.968503
-2.57466 0.998894 99.9687 -0.110236 -0.181103 -0.968504
-2.4822 0.998785 99.9575 -0.125984 -0.181103 -0.968503
-2.38969 0.998648 99.9444 -0.133858 -0.149607 -0.976377
-2.29722 0.998524 99.9332 -0.125984 -0.110237 -0.984251
-2.2048 0.998409 99.922 -0.125984 -0.0866144 -0.984251
-2.11241 0.998287 99.9089 -0.110236 -0.0787402 -0.984252
-2.02013 0.998211 99.9008 -0.0551182 -0.0787401 -0.992125
-1.92794 0.998187 99.8997 -0.0393702 -0.0944885 -0.992125
-1.83572 0.998138 99.8945 -0.110236 -0.0944886 -0.984251
-1.74336 0.997992 99.8794 -0.173228 -0.0629926 -0.976377
-1.65095 0.997814 99.8622 -0.141733 -0.0157485 -0.984251
-1.55875 0.997732 99.8521 -0.0787404 -0.0157484 -0.992126
-1.46656 0.997672 99.847 -0.102362 -0.0787402 -0.984252
-1.37432 0.997545 99.8338 -0.133858 -0.133859 -0.976377
-1.28202 0.997385 99.8197 -0.0944883 -0.149607 -0.976377
-1.18994 0.997339 99.8136 0.00787384 -0.165355 -0.984252
-1.09798 0.997414 99.8205 0.110236 -0.212599 -0.968503
-1.00604 0.997558 99.8365 0.165354 -0.283465 -0.937008
-0.914144 0.997733 99.8535 0.204725 -0.362206 -0.905512
-0.822228 0.997955 99.8765 0.27559 -0.440945 -0.850394
-0.730397 0.998327 99.9135 0.362205 -0.496063 -0.779527
-0.638568 0.998815 99.9626 0.417323 -0.52756 -0.732284
-0.54672 0.999381 100.018 0.456693 -0.551182 -0.68504
-0.454736 1.00003 100.085 0.503937 -0.566929 -0.645669
-0.270642 1.00165 100.244 0.551181 -0.574804 -0.590552
-0.178349 1.00254 100.333 0.566929 -0.582678 -0.574803
-0.0859036 1.00347 100.427 0.574803 -0.590551 -0.559055
0.00672584 1.00443 100.523 0.590552 -0.582678 -0.543308
0.099548 1.00547 100.628 0.614174 -0.582678 -0.519685
0.192604 1.00659 100.741 0.614174 -0.606299 -0.496063
0.285808 1.00775 100.857 0.6063 -0.637796 -0.456693
0.379258 1.00904 100.984 0.614174 -0.661417 -0.417323
0.473079 1.01045 101.126 0.614174 -0.685039 -0.377953
0.567196 1.012 101.281 0.637795 -0.677165 -0.346457
0.661822 1.01387 101.469 0.692914 -0.64567 -0.299213
0.75712 1.01624 101.704 0.755906 -0.606299 -0.236221
0.853958 1.01979 102.062 0.795276 -0.559055 -0.181103
0.952577 1.02466 102.548 0.84252 -0.503937 -0.157481
1.05258 1.02999 103.081 0.874016 -0.393701 -0.275591
1.14976 1.03184 103.268 0.76378 -0.330709 -0.543307
1.24603 1.03275 103.357 0.472441 -0.220473 -0.850394
1.34169 1.033 103.383 0.228346 -0.11811 -0.96063
1.43728 1.03321 103.403 0.188976 -0.0472444 -0.976377
1.53291 1.03338 103.42 0.188976 -3.99557e-07 -0.976378
1.6286 1.03357 103.44 0.251969 0.0472437 -0.960629
1.7245 1.03388 103.471 0.370079 0.0787399 -0.92126
1.82072 1.03434 103.517 0.472441 0.07874 -0.866142
1.91728 1.03494 103.576 0.535433 0.0393699 -0.842519
2.01405 1.03557 103.64 0.52756 -0.0157483 -0.84252
2.11085 1.03614 103.699 0.480315 -0.0944884 -0.866141
2.2075 1.03664 103.748 0.425197 -0.165355 -0.88189
2.3041 1.03708 103.79 0.385827 -0.228347 -0.889764
2.4008 1.03749 103.832 0.377953 -0.275591 -0.874015
2.49758 1.03791 103.875 0.385827 -0.314961 -0.858267
2.59449 1.03833 103.918 0.393701 -0.354331 -0.84252
2.69152 1.0388 103.965 0.409449 -0.385827 -0.818898
2.78879 1.03932 104.017 0.433071 -0.417323 -0.787402
2.88621 1.03988 104.071 0.448819 -0.440945 -0.771654
2.98382 1.04046 104.129 0.464567 -0.456694 -0.748032
3.08173 1.04107 104.192 0.480316 -0.472441 -0.732283
3.17984 1.04174 104.259 0.488189 -0.488189 -0.716535
3.2781 1.0424 104.325 0.480315 -0.503938 -0.708662
3.37643 1.04308 104.392 0.480316 -0.511811 -0.700787
3.47504 1.04377 104.462 0.472442 -0.519685 -0.700788
3.57358 1.04442 104.526 0.433071 -0.535434 -0.716535
3.67183 1.04496 104.58 0.393701 -0.535434 -0.740158
3.77015 1.04547 104.631 0.385827 -0.519685 -0.748032
3.86848 1.04599 104.682 0.385827 -0.496063 -0.771654
3.96693 1.04646 104.732 0.401575 -0.464567 -0.779528
4.06551 1.04699 104.783 0.448819 -0.425197 -0.771653
4.16462 1.04762 104.846 0.511811 -0.401575 -0.748032
4.26426 1.04834 104.918 0.551181 -0.393701 -0.724409
4.36434 1.04913 104.998 0.582677 -0.393701 -0.700787
4.46488 1.05 105.085 0.614174 -0.393701 -0.669291
4.56594 1.05095 105.181 0.645669 -0.401575 -0.637796
4.66768 1.05205 105.289 0.598426 -0.464567 -0.645669
4.76817 1.05277 105.363 0.496063 -0.519685 -0.685039
-5.42198 1.08894 99.7742 0.64567 0.07874 -0.748031
-5.33403 1.08977 99.8497 0.76378 0.055118 -0.637795
-5.24924 1.09129 99.9887 0.866142 -3.84357e-08 -0.496063
-5.16495 1.09296 100.144 0.858268 -0.0472441 -0.503937
-5.07935 1.09441 100.277 0.771653 -0.125985 -0.614173
-4.99118 1.09536 100.364 0.559055 -0.236221 -0.787401
-4.90069 1.09583 100.404 0.259842 -0.307087 -0.913385
-4.80855 1.09593 100.414 -1.29426e-07 -0.291339 -0.952756
-4.71554 1.09583 100.405 -0.141732 -0.204724 -0.96063
-4.62221 1.09566 100.39 -0.204725 -0.11811 -0.968504
-4.52862 1.09541 100.368 -0.259843 -0.0551186 -0.960629
-4.43475 1.09509 100.338 -0.322835 -0.00787444 -0.937008
-4.34065 1.09469 100.302 -0.354331 0.0472437 -0.929134
-4.24661 1.09429 100.266 -0.322835 0.102362 -0.937007
-4.15302 1.094 100.238 -0.244094 0.11811 -0.96063
-4.05975 1.09378 100.218 -0.188976 0.0944878 -0.976377
-3.96672 1.09361 100.202 -0.141732 0.0629917 -0.984251
-3.87394 1.0935 100.192 -0.133858 0.0472436 -0.984251
-3.78095 1.09333 100.177 -0.244095 0.0314956 -0.960629
-3.68734 1.09296 100.143 -0.354331 0.0236216 -0.929133
-3.59358 1.09253 100.103 -0.299213 0.0472436 -0.944882
-3.50054 1.09231 100.083 -0.157481 0.102362 -0.976378
-3.40793 1.09221 100.074 -0.0866144 0.15748 -0.976378
-3.31545 1.09215 100.067 -0.0314962 0.165354 -0.984251
-3.22308 1.09212 100.066 -0.0314962 0.11811 -0.984252
-3.13065 1.09206 100.06 -0.141732 0.0393696 -0.984251
-3.03765 1.09181 100.039 -0.236221 -0.0393705 -0.968504
-2.94471 1.09155 100.013 -0.220473 -0.0944887 -0.968503
-2.85193 1.09134 99.9932 -0.173228 -0.11811 -0.968503
-2.75923 1.09115 99.978 -0.133858 -0.11811 -0.976378
-2.66672 1.09102 99.9668 -0.11811 -0.110237 -0.984251
-2.57429 1.09092 99.9557 -0.11811 -0.11811 -0.984252
-2.48181 1.09078 99.9435 -0.11811 -0.125984 -0.976378
-2.38941 1.09068 99.9334 -0.102362 -0.11811 -0.984251
-2.2971 1.0906 99.9252 -0.102362 -0.110237 -0.984251
-2.20472 1.09049 99.9151 -0.125984 -0.110237 -0.984251
-2.1123 1.09035 99.9029 -0.110236 -0.11811 -0.984251
-2.01995 1.09024 99.8948 -0.0708663 -0.133859 -0.984252
-1.92774 1.09019 99.8897 -0.0708663 -0.165354 -0.976377
-1.83552 1.09012 99.8816 -0.110236 -0.196851 -0.968503
-1.74315 1.08997 99.8694 -0.125984 -0.188977 -0.968503
-1.6509 1.08986 99.8583 -0.110236 -0.165354 -0.976378
-1.55863 1.08975 99.8501 -0.125984 -0.173229 -0.968504
-1.4664 1.08961 99.834 -0.165355 -0.220473 -0.952756
-1.37403 1.08938 99.8148 -0.141732 -0.244095 -0.952756
-1.28185 1.08926 99.8027 -0.0787404 -0.228347 -0.968504
-1.18977 1.08921 99.7986 -0.00787416 -0.220473 -0.968503
-1.09774 1.08923 99.8005 0.0551182 -0.251969 -0.96063
-1.00577 1.08931 99.8084 0.0944881 -0.307088 -0.944882
-0.913775 1.0894 99.8184 0.125984 -0.362205 -0.92126
-0.821862 1.08956 99.8324 0.204725 -0.40945 -0.88189
-0.730031 1.08987 99.8594 0.307086 -0.448819 -0.834646
-0.638156 1.09029 99.8995 0.370079 -0.488189 -0.779527
-0.546304 1.09082 99.9476 0.425197 -0.52756 -0.732284
-0.454404 1.09148 100.008 0.480315 -0.543308 -0.677166
-0.362482 1.09226 100.078 0.519685 -0.551181 -0.637795
-0.270358 1.09311 100.157 0.543307 -0.56693 -0.614174
-0.178143 1.09403 100.241 0.551181 -0.582677 -0.590552
-0.0857953 1.095 100.329 0.566929 -0.582678 -0.56693
0.00671301 1.09603 100.423 0.574803 -0.590551 -0.551181
0.192308 1.09824 100.625 0.566929 -0.629922 -0.511812
0.285392 1.09933 100.725 0.559055 -0.661418 -0.488189
0.378699 1.10052 100.834 0.566929 -0.68504 -0.448819
0.472251 1.10186 100.957 0.582678 -0.692914 -0.409449
0.566171 1.10336 101.096 0.629922 -0.677165 -0.362205
0.660515 1.10526 101.269 0.692914 -0.637796 -0.314961
0.755547 1.10769 101.492 0.755906 -0.590551 -0.267717
0.851678 1.11099 101.794 0.80315 -0.543307 -0.212599
0.949284 1.11537 102.195 0.826772 -0.527559 -0.149607
1.04992 1.12217 102.82 0.976379 -0.055118 -0.181103
1.24575 1.1278 103.334 0.590552 -0.236221 -0.763779
1.34151 1.12819 103.37 0.299213 -0.165354 -0.937007
1.43722 1.12847 103.397 0.244094 -0.102363 -0.96063
1.53288 1.12874 103.42 0.244094 -0.0393704 -0.96063
1.62872 1.129 103.446 0.307087 0.00787368 -0.944881
1.7247 1.1294 103.482 0.393701 0.0551178 -0.913386
1.82092 1.12993 103.529 0.464567 0.0629919 -0.874016
1.91744 1.13053 103.585 0.496063 0.0314958 -0.866141
2.01405 1.13112 103.639 0.472441 -0.0236223 -0.874015
2.11059 1.13166 103.688 0.425197 -0.102362 -0.889764
2.20715 1.13211 103.731 0.377953 -0.157481 -0.905512
2.3036 1.13253 103.767 0.346457 -0.212598 -0.905512
2.40016 1.13291 103.804 0.354331 -0.244095 -0.897638
2.49681 1.13334 103.843 0.362205 -0.267717 -0.889763
2.59354 1.13376 103.882 0.362205 -0.299213 -0.874016
2.69038 1.13422 103.922 0.385827 -0.338583 -0.850394
2.78749 1.13472 103.969 0.409449 -0.370079 -0.826771
2.88479 1.13526 104.02 0.433071 -0.401576 -0.80315
2.98222 1.13587 104.073 0.448819 -0.417323 -0.779528
3.07999 1.1365 104.133 0.464567 -0.440945 -0.755905
3.17787 1.13719 104.195 0.464567 -0.472441 -0.740157
3.27589 1.13787 104.256 0.464567 -0.496064 -0.724409
3.3741 1.13856 104.32 0.472442 -0.511811 -0.708661
3.47258 1.13927 104.388 0.464567 -0.527559 -0.700788
3.57102 1.13997 104.451 0.433071 -0.551181 -0.708662
3.66925 1.14058 104.506 0.401575 -0.551181 -0.724409
3.76755 1.14116 104.56 0.401575 -0.543307 -0.732284
3.86604 1.14176 104.615 0.409449 -0.519685 -0.740157
3.96452 1.14237 104.669 0.425197 -0.496064 -0.748031
4.0633 1.14298 104.726 0.464567 -0.456694 -0.748032
4.16245 1.14368 104.791 0.511811 -0.425197 -0.740157
4.26199 1.14447 104.862 0.551181 -0.401575 -0.724409
4.36197 1.14532 104.941 0.590552 -0.385827 -0.700787
4.46243 1.14626 105.028 0.622048 -0.370079 -0.685039
4.56335 1.14728 105.121 0.645669 -0.362205 -0.661417
4.76501 1.14917 105.293 0.6063 -0.346457 -0.708661
-5.4225 1.18105 99.7844 0.64567 0.094488 -0.748032
-5.33445 1.18193 99.8588 0.748032 0.0787401 -0.645669
-5.24922 1.18347 99.9897 0.850394 0.031496 -0.519685
-5.16455 1.18521 100.137 0.850394 -0.00787404 -0.519685
-5.07875 1.18674 100.264 0.755905 -0.0472442 -0.637795
-4.99018 1.18766 100.343 0.527559 -0.110236 -0.834646
-4.89931 1.18806 100.378 0.251968 -0.149607 -0.952756
-4.8075 1.18825 100.392 0.0551181 -0.141733 -0.984252
-4.71486 1.18824 100.391 -0.0708663 -0.0944886 -0.992126
-4.62174 1.1881 100.381 -0.157481 -0.0472446 -0.984252
-4.52836 1.18789 100.361 -0.228347 -0.0236225 -0.968503
-4.43468 1.18758 100.336 -0.283465 -4.28196e-07 -0.952755
-4.34089 1.18724 100.307 -0.307087 0.0393696 -0.944882
-4.24715 1.1869 100.277 -0.299213 0.0629917 -0.944881
-4.15346 1.18655 100.249 -0.259843 0.0629917 -0.96063
-4.06007 1.18627 100.225 -0.220472 0.0314956 -0.968504
-3.9669 1.18605 100.206 -0.165355 -4.55797e-07 -0.984251
-3.87394 1.18588 100.194 -0.157481 -0.0236225 -0.984251
-3.78093 1.18569 100.176 -0.251969 -0.0393705 -0.960629
-3.68734 1.1853 100.143 -0.338583 -0.0157485 -0.937007
-3.59366 1.18486 100.108 -0.259843 0.00787358 -0.960629
-3.50084 1.18469 100.093 -0.110236 0.0472437 -0.984251
-3.4084 1.18464 100.086 -0.0629923 0.0708657 -0.992125
-3.31591 1.18458 100.081 -0.0551183 0.0708658 -0.992125
-3.22345 1.18452 100.077 -0.0944884 0.0314956 -0.992126
-3.13073 1.18435 100.063 -0.220473 -0.0157485 -0.968503
-3.0375 1.18398 100.032 -0.291339 -0.0629926 -0.952756
-2.94436 1.18363 100.002 -0.244095 -0.0866145 -0.96063
-2.85163 1.18341 99.9822 -0.173229 -0.0787403 -0.976378
-2.75901 1.18324 99.969 -0.125984 -0.0708666 -0.984252
-2.66657 1.18312 99.9578 -0.125984 -0.0708666 -0.984252
-2.57405 1.18297 99.9457 -0.133858 -0.0866144 -0.984251
-2.48155 1.18281 99.9315 -0.125984 -0.0944886 -0.984251
-2.38914 1.18269 99.9224 -0.102362 -0.110237 -0.984251
-2.29678 1.18258 99.9132 -0.125984 -0.133859 -0.976377
-2.20437 1.18242 99.8991 -0.141732 -0.165354 -0.968504
-2.11195 1.18226 99.8859 -0.110236 -0.181103 -0.976378
-2.0196 1.18215 99.8778 -0.0866144 -0.181103 -0.976378
-1.92735 1.18204 99.8676 -0.110236 -0.204724 -0.968503
-1.83498 1.18187 99.8545 -0.133859 -0.236221 -0.952756
-1.74272 1.18174 99.8413 -0.11811 -0.259843 -0.952756
-1.6505 1.18164 99.8332 -0.110236 -0.275591 -0.952756
-1.55823 1.18149 99.8221 -0.149607 -0.29134 -0.937007
-1.46587 1.18125 99.8009 -0.181103 -0.299213 -0.929134
-1.37358 1.18103 99.7827 -0.11811 -0.275591 -0.952755
-1.28145 1.18096 99.7776 -0.0551182 -0.251969 -0.960629
-1.18945 1.18093 99.7745 -0.0236222 -0.251969 -0.96063
-1.09739 1.18091 99.7734 0.0078739 -0.275591 -0.952756
-1.00542 1.18095 99.7764 0.0393704 -0.307087 -0.944881
-0.913502 1.18102 99.7803 0.0708663 -0.338583 -0.929134
-0.821524 1.18113 99.7913 0.165354 -0.370079 -0.905511
-0.729648 1.1814 99.8153 0.267716 -0.393701 -0.874015
-0.637826 1.18179 99.8473 0.322834 -0.433071 -0.834645
-0.545975 1.18225 99.8854 0.377953 -0.480316 -0.787402
-0.454136 1.18287 99.9365 0.456693 -0.511811 -0.716536
-0.362166 1.18363 100.003 0.511811 -0.527559 -0.669292
-0.270129 1.18449 100.076 0.527559 -0.543307 -0.637795
-0.177989 1.18541 100.153 0.543307 -0.56693 -0.614174
-0.0857012 1.18641 100.237 0.559055 -0.574804 -0.590552
0.00676275 1.18748 100.328 0.574803 -0.574804 -0.56693
0.0993534 1.18859 100.422 0.574803 -0.590551 -0.559055
0.192153 1.18969 100.515 0.559055 -0.614174 -0.543307
0.285122 1.19079 100.608 0.551181 -0.629922 -0.527559
0.378209 1.19194 100.703 0.559055 -0.645669 -0.503937
0.471603 1.19318 100.809 0.590552 -0.653543 -0.464567
0.565262 1.19468 100.936 0.653543 -0.622048 -0.40945
0.659417 1.19665 101.102 0.732284 -0.574803 -0.354331
0.754271 1.19923 101.319 0.795275 -0.519685 -0.307087
0.849998 1.20239 101.588 0.84252 -0.464567 -0.251969
0.946811 1.20645 101.93 0.897639 -0.385827 -0.188976
1.05056 1.21768 102.88 0.976379 -0.0157479 -0.204725
1.14828 1.22074 103.137 0.897639 -0.228346 -0.362205
1.24541 1.22271 103.304 0.661417 -0.259843 -0.692913
1.34127 1.22324 103.349 0.354331 -0.228347 -0.897638
1.43699 1.22364 103.382 0.307087 -0.173229 -0.929134
1.5328 1.22398 103.412 0.299213 -0.110237 -0.944882
1.62863 1.22438 103.443 0.354331 -0.0472444 -0.929134
1.72476 1.22485 103.485 0.425197 -0.00787426 -0.897638
1.82107 1.22544 103.535 0.464567 -2.73796e-07 -0.881889
1.91748 1.22606 103.587 0.456693 -0.0078743 -0.88189
2.01397 1.22661 103.634 0.417323 -0.0551184 -0.897638
2.11039 1.2271 103.676 0.377953 -0.110237 -0.913386
2.20677 1.22754 103.713 0.330709 -0.157481 -0.92126
2.30309 1.22793 103.745 0.314961 -0.196851 -0.921259
2.39955 1.22833 103.778 0.338583 -0.212598 -0.913386
2.49618 1.22876 103.816 0.346457 -0.228347 -0.905511
2.59281 1.22919 103.852 0.330709 -0.251968 -0.897638
2.68949 1.22962 103.887 0.354331 -0.283465 -0.88189
2.78641 1.23011 103.929 0.385827 -0.314961 -0.858267
2.88353 1.23064 103.975 0.401575 -0.354331 -0.834646
2.98085 1.23122 104.024 0.425197 -0.385827 -0.811023
3.07835 1.23188 104.078 0.440945 -0.417323 -0.787402
3.17606 1.23254 104.135 0.440945 -0.456693 -0.763779
3.27389 1.2332 104.191 0.440945 -0.48819 -0.748031
3.37187 1.2339 104.25 0.448819 -0.511811 -0.72441
3.47003 1.23465 104.312 0.448819 -0.527559 -0.708661
3.56834 1.23538 104.373 0.425197 -0.543308 -0.708662
3.66658 1.23604 104.43 0.409449 -0.551181 -0.716536
3.76488 1.23671 104.486 0.417323 -0.543308 -0.716536
3.86343 1.23738 104.544 0.433071 -0.527559 -0.72441
3.96205 1.23808 104.603 0.448819 -0.503937 -0.732283
4.0609 1.23881 104.664 0.480316 -0.464567 -0.732283
4.1601 1.23962 104.732 0.527559 -0.425198 -0.72441
4.25971 1.24051 104.807 0.574803 -0.377953 -0.716535
4.35981 1.24147 104.889 0.614174 -0.330709 -0.708662
4.46031 1.24251 104.978 0.637795 -0.299213 -0.700788
4.56112 1.24363 105.07 0.661417 -0.283464 -0.685039
4.66233 1.24479 105.168 0.661417 -0.259843 -0.692913
4.76358 1.24587 105.261 0.716536 -0.165354 -0.669292
4.86611 1.24728 105.38 0.771654 0.0944879 -0.614173
-5.42322 1.27322 99.7985 0.64567 0.133858 -0.748031
-5.33518 1.27418 99.873 0.740158 0.11811 -0.653543
-5.24969 1.27578 99.9989 0.834646 0.0787402 -0.527559
-5.16478 1.27759 100.14 0.834646 0.0472441 -0.535433
-5.07879 1.2792 100.265 0.748031 0.047244 -0.653543
-4.99004 1.28015 100.341 0.503937 0.0393699 -0.858268
-4.89901 1.28054 100.371 0.228346 0.0157477 -0.968504
-4.80718 1.28073 100.386 0.0787397 -3.87519e-07 -0.992126
-4.71469 1.28076 100.388 -0.0314962 0.00787358 -0.992126
-4.62178 1.28067 100.38 -0.133858 0.0393696 -0.984251
-4.52839 1.28043 100.363 -0.220472 0.0472436 -0.968503
-4.43476 1.28012 100.339 -0.267717 0.0472437 -0.96063
-4.34102 1.27976 100.311 -0.299213 0.0472437 -0.952755
-4.24729 1.2794 100.281 -0.299213 0.0314956 -0.944882
-4.15359 1.27902 100.251 -0.283465 0.0157476 -0.952756
-4.06006 1.27868 100.225 -0.244095 -4.93099e-07 -0.960629
-3.96674 1.2784 100.203 -0.19685 -0.0314965 -0.976378
-3.87371 1.27819 100.186 -0.181102 -0.0629926 -0.976377
-3.7806 1.27794 100.167 -0.244095 -0.0708666 -0.960629
-3.68709 1.27756 100.138 -0.307087 -0.0472446 -0.944881
-3.59364 1.27716 100.107 -0.228347 -0.0157485 -0.968503
-3.50087 1.277 100.094 -0.0944884 -4.60242e-07 -0.992125
-3.40845 1.27695 100.088 -0.0629923 -0.0078744 -0.992125
-3.31596 1.27687 100.082 -0.0787404 -0.0236224 -0.992126
-3.2234 1.27677 100.074 -0.133858 -0.0629925 -0.984252
-3.13052 1.27653 100.056 -0.251969 -0.0787403 -0.96063
-3.03721 1.2761 100.023 -0.299213 -0.0708666 -0.944881
-2.94414 1.27574 99.9934 -0.228347 -0.0472445 -0.968504
-2.85142 1.27551 99.9772 -0.149606 -0.0236225 -0.984251
-2.7589 1.27536 99.9651 -0.133858 -0.0236225 -0.984251
-2.6664 1.27521 99.9529 -0.133858 -0.0393705 -0.984251
-2.57389 1.27504 99.9387 -0.149607 -0.0551186 -0.984252
-2.48132 1.27484 99.9245 -0.133858 -0.0708666 -0.984252
-2.38887 1.27469 99.9134 -0.125984 -0.0944886 -0.984251
-2.29645 1.27453 99.9002 -0.157481 -0.125984 -0.976377
-2.20393 1.2743 99.882 -0.157481 -0.141733 -0.968504
-2.11151 1.27411 99.8679 -0.102362 -0.141733 -0.976377
-2.01928 1.27403 99.8618 -0.0708663 -0.118111 -0.984251
-1.92704 1.27392 99.8516 -0.125984 -0.102363 -0.984251
-1.8346 1.27368 99.8345 -0.173229 -0.110237 -0.976378
-1.7423 1.27349 99.8173 -0.149606 -0.149607 -0.968504
-1.65 1.27332 99.8061 -0.141732 -0.196851 -0.968503
-1.55774 1.27314 99.791 -0.165354 -0.204724 -0.96063
-1.46544 1.2729 99.7728 -0.149606 -0.173229 -0.968503
-1.37331 1.27277 99.7617 -0.0866144 -0.133859 -0.984252
-1.28124 1.27272 99.7576 -0.0629923 -0.141733 -0.984252
-1.1892 1.27264 99.7505 -0.0629924 -0.181103 -0.976378
-1.0971 1.27257 99.7474 -0.0157481 -0.212598 -0.968504
-1.00513 1.2726 99.7493 0.015748 -0.236221 -0.968503
-0.913176 1.27262 99.7502 0.0393703 -0.259842 -0.96063
-0.821258 1.2727 99.7562 0.133858 -0.291339 -0.944882
-0.729388 1.27297 99.7782 0.244094 -0.314961 -0.913386
-0.637607 1.27335 99.8062 0.27559 -0.354331 -0.889764
-0.545718 1.27371 99.8343 0.307086 -0.417323 -0.850394
-0.45381 1.27421 99.8743 0.409449 -0.464567 -0.771654
-0.361897 1.27496 99.9345 0.496063 -0.488189 -0.708662
-0.269938 1.27584 100.003 0.511811 -0.519685 -0.677165
-0.177861 1.27673 100.072 0.519685 -0.543307 -0.645669
-0.0856032 1.27772 100.151 0.551181 -0.559056 -0.614173
0.00675931 1.27885 100.239 0.566929 -0.559055 -0.590551
0.19193 1.28115 100.418 0.566929 -0.582678 -0.574803
0.377844 1.28343 100.598 0.574803 -0.590551 -0.551181
0.471078 1.28467 100.695 0.614174 -0.582678 -0.519685
0.564605 1.28617 100.813 0.692913 -0.551181 -0.456693
0.658624 1.28823 100.975 0.771654 -0.488189 -0.385827
0.75333 1.29096 101.188 0.834646 -0.433071 -0.330709
0.848775 1.29426 101.446 0.88189 -0.370079 -0.267717
0.945842 1.29904 101.821 0.96063 -0.149606 -0.19685
1.04713 1.30836 102.55 0.984252 -0.070866 -0.141733
1.14757 1.31507 103.076 0.913386 -0.220473 -0.330709
1.24502 1.31754 103.271 0.708662 -0.259843 -0.653544
1.34089 1.31816 103.32 0.393701 -0.267717 -0.874016
1.43672 1.31867 103.36 0.354331 -0.236221 -0.897638
1.53257 1.31915 103.397 0.354331 -0.173228 -0.913386
1.62853 1.31964 103.436 0.3937 -0.110237 -0.905511
1.7247 1.32021 103.481 0.448819 -0.0629925 -0.881889
1.82103 1.32088 103.533 0.472441 -0.0393704 -0.874015
1.91744 1.32153 103.584 0.440945 -0.0393704 -0.889764
2.01382 1.32208 103.628 0.385826 -0.0629924 -0.913385
2.1101 1.32257 103.664 0.338583 -0.0944884 -0.929133
2.20637 1.32298 103.696 0.291339 -0.133859 -0.937008
2.30267 1.32332 103.725 0.291339 -0.165354 -0.937007
2.39908 1.32374 103.757 0.330709 -0.173228 -0.92126
2.49562 1.32423 103.794 0.330709 -0.181103 -0.92126
2.5922 1.32464 103.828 0.307087 -0.196851 -0.921259
2.68876 1.32505 103.859 0.330709 -0.228347 -0.913386
2.78555 1.32553 103.897 0.362205 -0.259842 -0.889763
2.88251 1.32604 103.938 0.377953 -0.299213 -0.874015
2.97958 1.32659 103.98 0.393701 -0.338583 -0.842519
3.07687 1.3272 104.028 0.417323 -0.377953 -0.818898
3.17437 1.32783 104.079 0.417323 -0.417323 -0.80315
3.27187 1.3285 104.128 0.417323 -0.448819 -0.779527
3.36963 1.32918 104.182 0.433071 -0.480315 -0.755906
3.4677 1.3299 104.241 0.440945 -0.496064 -0.740158
3.56584 1.33065 104.299 0.425197 -0.519685 -0.732283
3.66401 1.33137 104.356 0.417323 -0.535434 -0.724409
3.76221 1.33211 104.412 0.425197 -0.535434 -0.72441
3.86071 1.33287 104.471 0.448819 -0.519685 -0.716535
3.95943 1.33366 104.534 0.472441 -0.496064 -0.716536
4.05841 1.33451 104.601 0.511811 -0.456693 -0.716536
4.15775 1.33545 104.673 0.559055 -0.409449 -0.708661
4.25767 1.33648 104.756 0.614174 -0.338583 -0.700787
4.35808 1.33764 104.847 0.661417 -0.267717 -0.692913
4.45884 1.33886 104.943 0.677165 -0.204724 -0.700787
4.5597 1.34008 105.038 0.68504 -0.173229 -0.700788
4.66092 1.34135 105.136 0.692914 -0.149606 -0.692914
4.7628 1.34272 105.245 0.771653 -0.0787402 -0.622047
4.86763 1.34488 105.413 0.84252 0.0393701 -0.527559
4.97286 1.34706 105.584 0.858268 -0.00787403 -0.503937
-5.42428 1.36551 99.8167 0.637796 0.181102 -0.740157
-5.33621 1.36653 99.8912 0.732284 0.165354 -0.653543
-5.25054 1.36821 100.015 0.826771 0.125984 -0.535433
-5.16544 1.3701 100.153 0.826772 0.110236 -0.543307
-5.07938 1.3718 100.278 0.732284 0.125984 -0.653543
-4.9907 1.37285 100.354 0.472441 0.149607 -0.858267
-4.89945 1.37321 100.38 0.181102 0.11811 -0.968503
-4.80735 1.37334 100.39 0.0629916 0.0787398 -0.992125
-4.71494 1.37339 100.393 -0.00787421 0.0708658 -0.992126
-4.6222 1.37335 100.389 -0.11811 0.0787398 -0.984252
-4.52881 1.3731 100.372 -0.220472 0.0787398 -0.968504
-4.43513 1.37275 100.345 -0.275591 0.0629917 -0.952755
-4.34128 1.37234 100.317 -0.299213 0.0472436 -0.944882
-4.24748 1.37192 100.285 -0.314961 0.0314956 -0.944881
-4.15366 1.37148 100.252 -0.299213 0.00787358 -0.944881
-4.05999 1.37107 100.224 -0.267717 -4.47081e-07 -0.960629
-3.96658 1.37073 100.2 -0.220473 -0.0157485 -0.968503
-3.87347 1.37048 100.18 -0.19685 -0.0314965 -0.976378
-3.78028 1.37019 100.16 -0.236221 -0.0314965 -0.968503
-3.68696 1.36983 100.133 -0.283465 -0.0157484 -0.952755
-3.59365 1.36946 100.105 -0.212598 -4.82149e-07 -0.968504
-3.50081 1.36926 100.093 -0.102362 -0.00787446 -0.992126
-3.40832 1.36919 100.087 -0.0787403 -0.0314965 -0.992126
-3.31575 1.36907 100.076 -0.110236 -0.0629926 -0.984252
-3.22301 1.36889 100.064 -0.157481 -0.0866144 -0.976378
-3.13018 1.36864 100.045 -0.236221 -0.0787403 -0.960629
-3.03702 1.36824 100.017 -0.267717 -0.0393706 -0.960629
-2.94407 1.36791 99.9925 -0.19685 -5.01035e-07 -0.976377
-2.85147 1.36772 99.9783 -0.141732 0.0078736 -0.984252
-2.75894 1.36755 99.9651 -0.149607 -4.22711e-07 -0.984252
-2.66632 1.36733 99.9499 -0.165354 -0.0236225 -0.984251
-2.57372 1.36711 99.9348 -0.165355 -0.0472446 -0.984252
-2.4812 1.36691 99.9196 -0.157481 -0.0708666 -0.984252
-2.38875 1.36672 99.9044 -0.157481 -0.0944886 -0.976378
-2.29618 1.36648 99.8892 -0.173229 -0.110237 -0.976378
-2.20367 1.36624 99.8711 -0.157481 -0.102363 -0.976378
-2.11133 1.36607 99.8579 -0.0787403 -0.0787402 -0.992125
-2.0192 1.36604 99.8548 -0.0393703 -0.0472445 -0.992126
-1.92698 1.36596 99.8507 -0.102362 -0.00787446 -0.992126
-1.83464 1.36575 99.8335 -0.188976 -4.83063e-07 -0.976377
-1.74221 1.36546 99.8123 -0.19685 -0.0157485 -0.976378
-1.64987 1.36521 99.7942 -0.173229 -0.0551186 -0.976377
-1.55759 1.36499 99.778 -0.149606 -0.0629926 -0.984252
-1.46534 1.36482 99.7669 -0.102362 -0.0393705 -0.992126
-1.37326 1.36473 99.7608 -0.0787404 -0.0236224 -0.992126
-1.28117 1.36463 99.7526 -0.0944883 -0.0472446 -0.992126
-1.18906 1.36446 99.7395 -0.102362 -0.0787402 -0.984252
-1.09693 1.36433 99.7314 -0.0472443 -0.118111 -0.984251
-1.00501 1.36434 99.7303 -8.91199e-08 -0.149607 -0.984251
-0.91302 1.36434 99.7312 0.015748 -0.157481 -0.984251
-0.821037 1.36436 99.7342 0.094488 -0.188977 -0.968503
-0.729235 1.3646 99.7501 0.204725 -0.23622 -0.944881
-0.637382 1.36495 99.7762 0.228347 -0.283465 -0.92126
-0.545459 1.36522 99.7972 0.244095 -0.338583 -0.905511
-0.453567 1.3656 99.8242 0.354331 -0.393701 -0.834646
-0.361716 1.36631 99.8753 0.464567 -0.433071 -0.76378
-0.269805 1.36717 99.9374 0.488189 -0.480315 -0.72441
-0.177724 1.36801 99.9996 0.496063 -0.519685 -0.692914
-0.0855578 1.36896 100.07 0.535433 -0.535433 -0.64567
0.00669824 1.3701 100.152 0.559055 -0.551181 -0.6063
0.0992019 1.37128 100.24 0.566929 -0.56693 -0.590551
0.191787 1.3725 100.328 0.566929 -0.56693 -0.582678
0.284539 1.37373 100.417 0.574803 -0.566929 -0.582678
0.377463 1.37495 100.506 0.582677 -0.559055 -0.582678
0.470603 1.37624 100.601 0.629922 -0.535433 -0.551181
0.564002 1.3778 100.714 0.716536 -0.488189 -0.488189
0.657915 1.37994 100.871 0.795275 -0.425197 -0.409449
0.752527 1.38278 101.08 0.850394 -0.377953 -0.346457
0.8478 1.38626 101.332 0.897639 -0.322835 -0.275591
0.945449 1.39237 101.78 0.976379 -0.125984 -0.165355
1.04697 1.40261 102.529 0.976379 -0.07874 -0.157481
1.24464 1.41232 103.24 0.72441 -0.275591 -0.622047
1.34043 1.413 103.287 0.409449 -0.299213 -0.858268
1.43632 1.41358 103.331 0.385827 -0.283465 -0.866142
1.53226 1.41418 103.375 0.409449 -0.244095 -0.874015
1.62829 1.41481 103.421 0.440945 -0.181102 -0.874015
1.72452 1.4155 103.471 0.472441 -0.125985 -0.866142
1.82092 1.41624 103.526 0.480315 -0.0866144 -0.866141
1.91735 1.41695 103.578 0.440945 -0.0787404 -0.889763
2.01367 1.41755 103.621 0.370079 -0.0787405 -0.921259
2.10992 1.41804 103.655 0.314961 -0.0944885 -0.937008
2.20615 1.41841 103.684 0.267716 -0.110236 -0.952756
2.30229 1.41876 103.709 0.283465 -0.125984 -0.944881
2.39872 1.41919 103.741 0.330709 -0.133858 -0.929134
2.49525 1.4197 103.778 0.322835 -0.149607 -0.929133
2.59176 1.42013 103.81 0.291339 -0.165354 -0.937007
2.68824 1.42052 103.839 0.299213 -0.188977 -0.929134
2.78488 1.421 103.872 0.330709 -0.212598 -0.913386
2.88172 1.42147 103.909 0.346457 -0.244095 -0.897638
2.97857 1.422 103.946 0.370079 -0.275591 -0.88189
3.0757 1.42257 103.988 0.393701 -0.307086 -0.858267
3.17294 1.4232 104.033 0.393701 -0.338583 -0.842519
3.27034 1.4238 104.079 0.401575 -0.370079 -0.826771
3.36783 1.42447 104.126 0.417323 -0.401576 -0.80315
3.4656 1.4252 104.179 0.425197 -0.433071 -0.787402
3.56357 1.42593 104.234 0.425197 -0.464567 -0.771654
3.66156 1.42667 104.287 0.417323 -0.48819 -0.755906
3.75973 1.4274 104.342 0.433071 -0.496064 -0.748031
3.8581 1.42822 104.4 0.464567 -0.488189 -0.732284
3.95686 1.42912 104.466 0.503937 -0.464568 -0.716536
4.05597 1.4301 104.538 0.543307 -0.425197 -0.708662
4.15556 1.43118 104.617 0.6063 -0.370079 -0.692913
4.25574 1.43245 104.709 0.669291 -0.291339 -0.677165
4.35664 1.43388 104.814 0.708662 -0.196851 -0.669291
4.4579 1.43533 104.921 0.708662 -0.110236 -0.685039
4.55901 1.43673 105.022 0.700788 -0.0629922 -0.700787
4.66031 1.4381 105.122 0.708662 -0.0551183 -0.692913
4.76212 1.43957 105.23 0.795276 -0.0551182 -0.598426
4.86764 1.44208 105.413 0.84252 -0.0472441 -0.519685
4.97247 1.44428 105.575 0.84252 -0.0787402 -0.519685
-5.42562 1.45791 99.842 0.629922 0.220472 -0.740157
-5.33753 1.45899 99.9165 0.72441 0.204725 -0.645669
-5.25189 1.4608 100.04 0.818897 0.173228 -0.535433
-5.16671 1.46281 100.176 0.818897 0.173228 -0.543307
-5.08048 1.46458 100.299 0.716536 0.181102 -0.661417
-4.9917 1.46567 100.373 0.440945 0.196851 -0.866141
-4.90019 1.46599 100.396 0.125984 0.165354 -0.976378
-4.8078 1.46605 100.398 0.0236219 0.110236 -0.992125
-4.71533 1.46608 100.4 -0.00787413 0.0787398 -0.992126
-4.62261 1.46604 100.397 -0.11811 0.0629917 -0.984252
-4.52909 1.46574 100.379 -0.236221 0.0472436 -0.968503
-4.43531 1.46534 100.351 -0.291339 0.0314956 -0.952756
-4.34148 1.4649 100.321 -0.314961 0.0157475 -0.944881
-4.24756 1.46442 100.288 -0.330709 0.00787356 -0.937008
-4.15367 1.46393 100.254 -0.314961 -4.67719e-07 -0.944881
-4.05999 1.46348 100.224 -0.267717 -4.47081e-07 -0.960629
-3.96663 1.46314 100.199 -0.228347 0.00787362 -0.968504
-3.87339 1.46283 100.18 -0.204724 0.00787359 -0.976377
-3.78025 1.46254 100.159 -0.228347 0.0157476 -0.968504
-3.68697 1.46217 100.133 -0.259843 0.0314956 -0.960629
-3.59369 1.46178 100.107 -0.212598 0.0393696 -0.968503
-3.50086 1.46157 100.093 -0.125984 0.0157476 -0.984252
-3.40824 1.46144 100.084 -0.11811 -0.0078744 -0.992126
-3.31551 1.46124 100.07 -0.141732 -0.0393705 -0.984251
-3.22271 1.46101 100.055 -0.165355 -0.0551186 -0.976377
-3.12995 1.46078 100.037 -0.212599 -0.0393705 -0.968504
-3.03693 1.46042 100.015 -0.228347 -0.0078745 -0.968503
-2.94413 1.46013 99.9946 -0.181102 0.00787354 -0.976377
-2.85154 1.45994 99.9814 -0.149607 0.0157476 -0.984252
-2.75897 1.45974 99.9662 -0.173229 -4.41404e-07 -0.976377
-2.66625 1.45945 99.947 -0.19685 -0.0236225 -0.976378
-2.57361 1.45918 99.9278 -0.188976 -0.0629926 -0.976377
-2.481 1.45892 99.9116 -0.173229 -0.0866145 -0.976378
-2.38848 1.45868 99.8944 -0.165354 -0.0944887 -0.976378
-2.29598 1.45844 99.8773 -0.165354 -0.0944887 -0.976378
-2.20348 1.45819 99.8621 -0.141732 -0.0787403 -0.984251
-2.11117 1.45805 99.8519 -0.0629923 -0.0708665 -0.992125
-2.01908 1.45804 99.8508 -0.00787417 -0.0551185 -0.992126
-1.92698 1.45803 99.8508 -0.0708663 -0.0236225 -0.992126
-1.83469 1.45786 99.8386 -0.181102 -4.65091e-07 -0.976377
-1.74222 1.45752 99.8154 -0.236221 -0.00787442 -0.968503
-1.64976 1.45717 99.7922 -0.19685 -0.0314965 -0.976378
-1.55753 1.45695 99.7751 -0.133858 -0.0314965 -0.984251
-1.4654 1.45682 99.7659 -0.0866144 -0.0236224 -0.992126
-1.37327 1.4567 99.7588 -0.0944884 -0.0314965 -0.992126
-1.28112 1.45655 99.7487 -0.110236 -0.0393705 -0.992126
-1.18901 1.45637 99.7355 -0.125984 -0.0393705 -0.984251
-1.09686 1.45618 99.7234 -0.0787403 -0.0551186 -0.992125
-1.00487 1.45612 99.7193 -0.00787413 -0.0708665 -0.992126
-0.912901 1.45614 99.7212 0.00787393 -0.0787406 -0.992126
-0.820934 1.45615 99.7222 0.047244 -0.102363 -0.992125
-0.729041 1.45628 99.7311 0.141732 -0.173229 -0.968504
-0.637253 1.45658 99.7501 0.173229 -0.251969 -0.944882
-0.545361 1.45682 99.7661 0.188977 -0.299213 -0.929134
-0.453407 1.45709 99.7861 0.299212 -0.338583 -0.88189
-0.36151 1.4577 99.8282 0.425197 -0.377953 -0.818898
-0.269651 1.4585 99.8813 0.448819 -0.433071 -0.771653
-0.177615 1.45928 99.9354 0.456693 -0.480315 -0.740157
-0.0855385 1.46017 99.9955 0.503937 -0.511812 -0.68504
0.0067305 1.46124 100.071 0.543307 -0.535433 -0.637795
0.0990506 1.46245 100.152 0.551181 -0.559055 -0.6063
0.191628 1.4637 100.239 0.566929 -0.559055 -0.590551
0.28432 1.46504 100.33 0.582677 -0.551181 -0.582678
0.377143 1.46637 100.42 0.598426 -0.535434 -0.590552
0.470188 1.46775 100.515 0.64567 -0.503938 -0.566929
0.56352 1.4694 100.628 0.732284 -0.448819 -0.503938
0.657359 1.47167 100.784 0.811024 -0.377953 -0.425198
0.751779 1.47463 100.986 0.858268 -0.338583 -0.362205
0.847039 1.47823 101.234 0.905513 -0.299212 -0.283465
0.943773 1.48364 101.603 0.937008 -0.27559 -0.173229
1.04599 1.49572 102.432 0.968505 -0.173228 -0.141733
1.24416 1.50699 103.203 0.716536 -0.362205 -0.590552
1.33998 1.5077 103.251 0.417323 -0.377953 -0.818898
1.43582 1.50833 103.295 0.401575 -0.346457 -0.834646
1.53174 1.50903 103.342 0.440945 -0.307087 -0.834646
1.62789 1.50981 103.396 0.488189 -0.23622 -0.834646
1.72425 1.51065 103.455 0.511811 -0.173229 -0.834646
1.82068 1.51152 103.513 0.496063 -0.133859 -0.850394
1.91715 1.51229 103.567 0.440945 -0.118111 -0.881889
2.01351 1.51293 103.611 0.370079 -0.118111 -0.913385
2.10971 1.51345 103.645 0.307087 -0.11811 -0.937008
2.20586 1.51386 103.672 0.259842 -0.11811 -0.952756
2.30202 1.51422 103.697 0.27559 -0.110236 -0.952756
2.39836 1.51467 103.728 0.314961 -0.11811 -0.937007
2.49491 1.51517 103.763 0.314961 -0.133859 -0.937008
2.59131 1.51562 103.793 0.27559 -0.15748 -0.944882
2.68778 1.516 103.821 0.283464 -0.165354 -0.937007
2.78437 1.51646 103.852 0.314961 -0.173229 -0.929134
2.88102 1.51697 103.885 0.322835 -0.196851 -0.921259
2.97782 1.51746 103.92 0.346457 -0.212598 -0.905512
3.07481 1.51802 103.958 0.370079 -0.236221 -0.889764
3.17197 1.51862 104 0.377953 -0.259842 -0.88189
3.26917 1.51923 104.042 0.385827 -0.283465 -0.874015
3.36653 1.51987 104.085 0.401575 -0.314961 -0.858267
3.46407 1.52055 104.132 0.409449 -0.346457 -0.834646
3.56176 1.52126 104.181 0.409449 -0.385827 -0.818898
3.65958 1.52198 104.23 0.417323 -0.409449 -0.80315
3.75758 1.52273 104.282 0.448819 -0.417323 -0.787401
3.85585 1.5236 104.34 0.488189 -0.40945 -0.763779
3.95459 1.52457 104.406 0.535433 -0.393701 -0.740158
4.05377 1.52566 104.481 0.582678 -0.362205 -0.716535
4.15352 1.52691 104.566 0.645669 -0.307087 -0.685039
4.25418 1.5284 104.67 0.716536 -0.228347 -0.653543
4.35562 1.53016 104.789 0.755906 -0.133858 -0.637795
4.45743 1.53192 104.91 0.748031 -0.0472442 -0.653543
4.55898 1.53353 105.021 0.716536 -1.30966e-07 -0.692913
4.66035 1.535 105.122 0.700788 -1.31706e-07 -0.708662
4.76183 1.53648 105.223 0.787402 -0.0236221 -0.614174
4.86684 1.539 105.396 0.850394 -0.0472441 -0.511811
4.97126 1.54124 105.549 0.850394 0.023622 -0.519685
-5.42715 1.5504 99.8693 0.622048 0.228346 -0.740157
-5.33906 1.55157 99.9448 0.732284 0.204725 -0.645669
-5.25359 1.55355 100.074 0.818897 0.188976 -0.527559
-5.16844 1.5557 100.21 0.803149 0.19685 -0.551181
-5.0819 1.5575 100.326 0.700787 0.204724 -0.677165
-4.99281 1.55857 100.395 0.401575 0.212598 -0.88189
-4.90108 1.55884 100.413 0.0708663 0.173228 -0.976378
-4.80837 1.5588 100.41 -0.0314961 0.110236 -0.992125
-4.71555 1.55873 100.407 -0.0472442 0.0551177 -0.992125
-4.62272 1.55865 100.401 -0.133858 0.0157476 -0.984252
-4.52927 1.55835 100.381 -0.244095 0.00787358 -0.968503
-4.43542 1.55791 100.353 -0.299213 -4.31775e-07 -0.944881
-4.34151 1.55741 100.321 -0.330709 -0.00787446 -0.937007
-4.2475 1.55687 100.287 -0.338583 -0.0157485 -0.937007
-4.15367 1.55636 100.253 -0.307087 -0.00787443 -0.944882
-4.06007 1.55592 100.224 -0.259843 -4.29109e-07 -0.960629
-3.9667 1.55555 100.201 -0.220472 0.00787361 -0.968504
-3.87353 1.55525 100.182 -0.19685 0.0236216 -0.976377
-3.78043 1.55495 100.163 -0.212598 0.0393696 -0.968503
-3.68718 1.55458 100.139 -0.244095 0.0629917 -0.96063
-3.59394 1.5542 100.115 -0.212598 0.0787398 -0.968504
-3.50103 1.55394 100.098 -0.165355 0.0551177 -0.976378
-3.40821 1.55371 100.084 -0.157481 0.00787357 -0.984252
-3.31536 1.55345 100.067 -0.165354 -0.0157485 -0.984251
-3.22261 1.55322 100.051 -0.165354 -0.0157485 -0.984251
-3.12984 1.55297 100.035 -0.188976 -0.00787447 -0.976378
-3.03694 1.55264 100.015 -0.204724 -4.96542e-07 -0.976378
-2.94416 1.55235 99.9966 -0.165355 0.0157476 -0.984252
-2.85157 1.55215 99.9825 -0.157481 0.00787357 -0.984252
-2.75893 1.5519 99.9663 -0.188976 -4.83063e-07 -0.976377
-2.66615 1.55156 99.9451 -0.220473 -0.00787448 -0.968503
-2.57344 1.55122 99.9218 -0.220473 -0.0314965 -0.968503
-2.48078 1.5509 99.9016 -0.188976 -0.0551186 -0.976377
-2.38821 1.55063 99.8854 -0.165355 -0.0551186 -0.976377
-2.29574 1.55039 99.8703 -0.165355 -0.0393705 -0.984252
-2.20331 1.55016 99.8551 -0.141732 -0.0472445 -0.984252
-2.11107 1.55002 99.844 -0.0629923 -0.0551185 -0.992126
-2.01895 1.55 99.8439 -1.84008e-07 -0.0629925 -0.992126
-1.92692 1.55003 99.8448 -0.0551182 -0.0708666 -0.992125
-1.83461 1.54986 99.8357 -0.181102 -0.0708666 -0.976377
-1.74219 1.5495 99.8105 -0.244095 -0.0629926 -0.960629
-1.64967 1.54909 99.7863 -0.188976 -0.0393705 -0.976377
-1.55742 1.54887 99.7721 -0.110236 -0.0157485 -0.992126
-1.46534 1.54876 99.764 -0.0944884 -0.00787447 -0.992125
-1.3732 1.5486 99.7539 -0.110236 -0.0157485 -0.992126
-1.28103 1.54843 99.7437 -0.110236 -0.0236225 -0.992126
-1.18895 1.54828 99.7336 -0.11811 -0.0078744 -0.992126
-1.09683 1.54809 99.7215 -0.0866143 -4.45127e-07 -0.992125
-1.00487 1.54802 99.7154 -0.0157481 -3.976e-07 -0.992126
-0.912902 1.54804 99.7173 -1.78966e-07 -0.00787447 -0.992126
-0.820904 1.54802 99.7172 -1.33374e-07 -0.0472445 -0.992126
-0.728974 1.54803 99.7171 0.0393701 -0.125985 -0.984252
-0.637098 1.54817 99.7251 0.094488 -0.220472 -0.968504
-0.54514 1.54833 99.7371 0.15748 -0.275591 -0.944881
-0.453243 1.54862 99.7561 0.27559 -0.283465 -0.913386
-0.361373 1.54917 99.7911 0.370079 -0.307087 -0.866142
-0.269506 1.54986 99.8342 0.401575 -0.377953 -0.826772
-0.177513 1.55055 99.8793 0.417323 -0.433071 -0.787402
-0.0854712 1.55137 99.9314 0.472441 -0.472441 -0.732284
0.00667631 1.5524 99.9975 0.519685 -0.503937 -0.68504
0.0989715 1.55354 100.071 0.543307 -0.527559 -0.64567
0.191482 1.55476 100.152 0.574803 -0.535434 -0.606299
0.284065 1.55621 100.244 0.6063 -0.519685 -0.590552
0.37688 1.5577 100.34 0.622048 -0.503937 -0.590551
0.469835 1.55921 100.436 0.669291 -0.456693 -0.566929
0.563123 1.56102 100.554 0.755906 -0.385827 -0.511811
0.65686 1.56346 100.71 0.826772 -0.322835 -0.440945
0.751176 1.56646 100.903 0.866142 -0.299213 -0.377953
0.846231 1.57018 101.143 0.905512 -0.275591 -0.299213
0.942564 1.57524 101.47 0.937008 -0.251969 -0.220473
1.04363 1.58659 102.202 0.944882 -0.283464 -0.118111
1.14581 1.59772 102.917 0.913386 -0.267717 -0.299213
1.24345 1.60116 103.141 0.700787 -0.496063 -0.503937
1.33932 1.60213 103.201 0.464567 -0.472441 -0.740157
1.43518 1.60288 103.25 0.433071 -0.393701 -0.80315
1.5312 1.60369 103.303 0.488189 -0.330709 -0.803149
1.62744 1.60465 103.365 0.543307 -0.251968 -0.795275
1.72383 1.60572 103.432 0.551181 -0.181103 -0.80315
1.82042 1.6067 103.497 0.519685 -0.141733 -0.834645
1.91687 1.60756 103.552 0.440945 -0.133859 -0.881889
2.01322 1.60824 103.596 0.370079 -0.141733 -0.913386
2.1094 1.60879 103.63 0.314961 -0.141733 -0.937008
2.20566 1.60923 103.66 0.27559 -0.125984 -0.944881
2.30185 1.60965 103.687 0.275591 -0.110237 -0.944881
2.39814 1.61012 103.717 0.307087 -0.102363 -0.944882
2.49459 1.61061 103.749 0.299213 -0.125984 -0.944881
2.59092 1.61107 103.777 0.267716 -0.133859 -0.944882
2.68731 1.61149 103.804 0.283464 -0.141733 -0.944882
2.78392 1.61196 103.835 0.307087 -0.141733 -0.937008
2.88053 1.61247 103.867 0.314961 -0.141733 -0.929134
2.97727 1.61296 103.9 0.330709 -0.157481 -0.929133
3.07413 1.61352 103.935 0.354331 -0.165354 -0.913386
3.17114 1.61414 103.974 0.370079 -0.181103 -0.905511
3.26831 1.61476 104.015 0.377953 -0.196851 -0.897638
3.36554 1.6154 104.055 0.377953 -0.220472 -0.889764
3.46292 1.61602 104.097 0.385827 -0.251969 -0.881889
3.56035 1.6167 104.14 0.401575 -0.275591 -0.866141
3.65804 1.61741 104.186 0.425197 -0.299213 -0.850393
3.75594 1.61821 104.237 0.464567 -0.291339 -0.826772
3.85423 1.61912 104.296 0.511811 -0.275591 -0.80315
3.95295 1.62014 104.362 0.559055 -0.259843 -0.779527
4.05213 1.62131 104.438 0.614174 -0.244095 -0.740157
4.15198 1.62272 104.528 0.68504 -0.204724 -0.68504
4.25291 1.62446 104.639 0.755906 -0.149607 -0.629921
4.35492 1.62651 104.772 0.787402 -0.0787402 -0.6063
4.4573 1.62863 104.907 0.771654 -0.00787412 -0.622047
4.55925 1.63046 105.027 0.724409 0.023622 -0.677165
4.66052 1.632 105.127 0.68504 0.0157479 -0.72441
4.7616 1.63343 105.218 0.76378 -0.00787412 -0.629921
4.86614 1.63597 105.381 0.874016 -0.00787403 -0.480315
4.97403 1.6395 105.608 0.897638 0.220473 -0.377953
-5.42858 1.64292 99.8966 0.629921 0.228347 -0.732284
-5.34048 1.64416 99.9711 0.732284 0.212599 -0.637795
-5.25524 1.64634 100.103 0.826772 0.181103 -0.527559
-5.17005 1.64861 100.241 0.80315 0.181103 -0.559055
-5.08322 1.65043 100.354 0.677165 0.19685 -0.700787
-4.99389 1.65149 100.417 0.370079 0.212598 -0.897637
-4.90192 1.65171 100.431 0.00787383 0.165354 -0.984252
-4.80882 1.65154 100.42 -0.110236 0.0866138 -0.984251
-4.71569 1.65136 100.41 -0.0944883 0.0157476 -0.992125
-4.62268 1.65121 100.4 -0.149606 -0.00787443 -0.984251
-4.52919 1.65089 100.381 -0.244095 -0.0157485 -0.96063
-4.43541 1.65043 100.352 -0.307087 -0.0157484 -0.944882
-4.34136 1.64986 100.318 -0.338583 -0.0236225 -0.937007
-4.24733 1.64927 100.283 -0.330709 -0.0236225 -0.937007
-4.15353 1.64875 100.251 -0.291339 -0.0157485 -0.952755
-4.06004 1.64832 100.224 -0.244095 -4.93099e-07 -0.960629
-3.96677 1.64797 100.202 -0.204724 0.0157476 -0.976377
-3.87361 1.64765 100.184 -0.188976 0.0236216 -0.976377
-3.78056 1.64737 100.167 -0.188976 0.0472437 -0.976378
-3.68751 1.64706 100.146 -0.220472 0.0708657 -0.968504
-3.59431 1.64668 100.125 -0.220472 0.0787398 -0.968504
-3.50126 1.64634 100.105 -0.204724 0.0629917 -0.968503
-3.40827 1.64601 100.085 -0.19685 0.0236216 -0.976377
-3.31537 1.64571 100.066 -0.181102 -4.65091e-07 -0.976377
-3.22257 1.64545 100.05 -0.165354 -0.0157485 -0.984251
-3.12986 1.64521 100.034 -0.181102 -0.00787445 -0.976378
-3.03703 1.64489 100.015 -0.181102 -4.65091e-07 -0.976377
-2.94423 1.6446 99.9987 -0.157481 0.0157476 -0.984252
-2.8516 1.64436 99.9845 -0.157481 0.0236216 -0.984252
-2.75892 1.64407 99.9673 -0.19685 0.0157476 -0.976377
-2.66618 1.64373 99.9451 -0.228347 0.0157476 -0.968504
-2.57344 1.64335 99.9209 -0.228347 0.0236216 -0.968504
-2.48072 1.64297 99.8987 -0.188976 0.0236216 -0.976377
-2.38822 1.64272 99.8835 -0.157481 0.0236216 -0.984252
-2.29576 1.64249 99.8703 -0.165355 0.0236216 -0.984252
-2.20328 1.6422 99.8532 -0.157481 0.00787357 -0.984252
-2.11092 1.64199 99.84 -0.0787403 -0.00787444 -0.992125
-2.01887 1.64198 99.8379 -0.0157482 -0.0393705 -0.992126
-1.9268 1.64196 99.8368 -0.0708663 -0.0787402 -0.992125
-1.83444 1.64174 99.8247 -0.181102 -0.0944887 -0.976378
-1.74195 1.64135 99.8015 -0.212599 -0.0629926 -0.968504
-1.64961 1.64104 99.7823 -0.141732 -4.07596e-07 -0.984252
-1.55745 1.6409 99.7742 -0.0787404 0.0472437 -0.992126
-1.46538 1.64079 99.7661 -0.102362 0.0551177 -0.992126
